VERSION .7
FIELDS x y z
SIZE 4 4 4
TYPE F F F
COUNT 1 1 1
WIDTH 1936
HEIGHT 1
VIEWPOINT 0 0 0 1 0 0 0
POINTS 1936
DATA ascii
2.53165 1.77266 16.2945 
2.52913 1.77777 16.2761 
2.53165 1.77951 16.2945 
2.52913 1.78461 16.2761 
2.52913 1.79145 16.2761 
2.52913 1.79828 16.2761 
2.53165 1.80004 16.2945 
2.52913 1.80512 16.2761 
2.52913 1.81196 16.2761 
2.52913 1.8188 16.2761 
2.52913 1.82563 16.2761 
2.52913 1.83247 16.2761 
2.52913 1.83931 16.2761 
2.52913 1.84615 16.2761 
2.52913 1.85298 16.2761 
2.52913 1.85982 16.2761 
2.52913 1.86666 16.2761 
2.52913 1.8735 16.2761 
2.52913 1.88033 16.2761 
2.52913 1.88717 16.2761 
2.52913 1.89401 16.2761 
2.52913 1.90085 16.2761 
2.52913 1.90769 16.2761 
2.52913 1.91452 16.2761 
2.52913 1.92136 16.2761 
2.52913 1.9282 16.2761 
2.52913 1.93504 16.2761 
2.52913 1.94187 16.2761 
2.52661 1.94681 16.2579 
2.52913 1.94871 16.2761 
2.52661 1.95364 16.2579 
2.52913 1.95555 16.2761 
2.52661 1.96047 16.2579 
2.52913 1.96239 16.2761 
2.52661 1.9673 16.2579 
2.52913 1.96922 16.2761 
2.52661 1.97413 16.2579 
2.52913 1.97606 16.2761 
2.52661 1.98096 16.2579 
2.52913 1.9829 16.2761 
2.52661 1.98779 16.2579 
2.52913 1.98974 16.2761 
2.52661 1.99463 16.2579 
2.5241 1.9995 16.2396 
2.52661 2.00146 16.2579 
2.5241 2.00633 16.2396 
2.52661 2.00829 16.2579 
2.5241 2.01315 16.2396 
2.52661 2.01512 16.2579 
2.5241 2.01998 16.2396 
2.52159 2.02483 16.2214 
2.52159 2.03165 16.2214 
2.52159 2.03846 16.2214 
2.51908 2.04329 16.2032 
2.51908 2.0501 16.2032 
2.51658 2.06172 16.1851 
2.51409 2.06651 16.167 
2.51908 2.07053 16.2032 
2.51409 2.07331 16.167 
2.51908 2.07735 16.2032 
2.51409 2.08011 16.167 
2.51658 2.08213 16.1851 
2.51908 2.08416 16.2032 
2.51409 2.08691 16.167 
2.51658 2.08893 16.1851 
2.51658 2.09574 16.1851 
2.51908 2.09778 16.2032 
2.51658 2.10254 16.1851 
2.51908 2.10459 16.2032 
2.46813 1.36945 15.9414 
2.47098 1.37748 15.959 
2.47672 1.38687 15.9943 
2.47672 1.3936 15.9943 
2.47959 1.39494 16.012 
2.47959 1.40168 16.012 
2.48247 1.40303 16.0297 
2.48247 1.40978 16.0297 
2.48536 1.41114 16.0474 
2.48825 1.4125 16.0652 
2.48536 1.41789 16.0474 
2.48825 1.41926 16.0652 
2.49115 1.42063 16.0831 
2.48825 1.42601 16.0652 
2.49115 1.42739 16.0831 
2.49115 1.43416 16.0831 
2.49405 1.43554 16.1009 
2.49696 1.43693 16.1188 
2.49405 1.44232 16.1009 
2.49696 1.44371 16.1188 
2.49696 1.45049 16.1188 
2.49987 1.4519 16.1368 
2.49696 1.45727 16.1188 
2.49987 1.45868 16.1368 
2.49987 1.46547 16.1368 
2.49987 1.47225 16.1368 
2.49987 1.47903 16.1368 
2.49987 1.48582 16.1368 
2.50279 1.48726 16.1547 
2.50279 1.49405 16.1547 
2.50572 1.4955 16.1727 
2.50279 1.50084 16.1547 
2.50572 1.5023 16.1727 
2.50572 1.5091 16.1727 
2.50865 1.51057 16.1908 
2.50572 1.5159 16.1727 
2.50865 1.51737 16.1908 
2.50572 1.52269 16.1727 
2.50865 1.52417 16.1908 
2.51159 1.52566 16.2088 
2.50572 1.52949 16.1727 
2.50865 1.53098 16.1908 
2.51159 1.53247 16.2088 
2.50865 1.53778 16.1908 
2.51159 1.53928 16.2088 
2.50865 1.54459 16.1908 
2.51159 1.54609 16.2088 
2.50865 1.55139 16.1908 
2.51159 1.5529 16.2088 
2.51159 1.55971 16.2088 
2.51453 1.56123 16.2269 
2.51159 1.56652 16.2088 
2.51453 1.56805 16.2269 
2.51159 1.57333 16.2088 
2.51453 1.57487 16.2269 
2.51453 1.58168 16.2269 
2.51453 1.5885 16.2269 
2.51453 1.59532 16.2269 
2.51453 1.60214 16.2269 
2.51453 1.60895 16.2269 
2.51748 1.61735 16.2451 
2.51748 1.63782 16.2451 
2.51748 1.64464 16.2451 
2.51748 1.65147 16.2451 
2.51748 1.65829 16.2451 
2.51748 1.66512 16.2451 
2.52043 1.66674 16.2633 
2.51748 1.67194 16.2451 
2.52043 1.67357 16.2633 
2.52043 1.6804 16.2633 
2.52043 1.68723 16.2633 
2.52043 1.69407 16.2633 
2.52339 1.69572 16.2815 
2.52043 1.7009 16.2633 
2.52339 1.70256 16.2815 
2.52043 1.70773 16.2633 
2.52339 1.7094 16.2815 
2.52043 1.71456 16.2633 
2.52339 1.71623 16.2815 
2.52043 1.72139 16.2633 
2.52339 1.72307 16.2815 
2.52339 1.72991 16.2815 
2.52339 1.73675 16.2815 
2.52339 1.74358 16.2815 
2.52636 1.74529 16.2997 
2.52339 1.75042 16.2815 
2.52636 1.75213 16.2997 
2.52339 1.75726 16.2815 
2.52636 1.75898 16.2997 
2.52339 1.7641 16.2815 
2.52636 1.76582 16.2997 
2.52339 1.77093 16.2815 
2.52636 1.77266 16.2997 
2.52339 1.77777 16.2815 
2.52636 1.77951 16.2997 
2.52339 1.78461 16.2815 
2.52339 1.79145 16.2815 
2.52339 1.79828 16.2815 
2.52339 1.80512 16.2815 
2.52339 1.81196 16.2815 
2.52339 1.8188 16.2815 
2.52339 1.82563 16.2815 
2.52339 1.83247 16.2815 
2.52339 1.83931 16.2815 
2.52339 1.84615 16.2815 
2.52339 1.85298 16.2815 
2.52339 1.85982 16.2815 
2.52339 1.86666 16.2815 
2.52339 1.8735 16.2815 
2.52339 1.88033 16.2815 
2.52339 1.88717 16.2815 
2.52339 1.89401 16.2815 
2.52339 1.90085 16.2815 
2.52339 1.90769 16.2815 
2.52043 1.91265 16.2633 
2.52339 1.91452 16.2815 
2.52043 1.91949 16.2633 
2.52339 1.92136 16.2815 
2.52043 1.92632 16.2633 
2.52339 1.9282 16.2815 
2.52043 1.93315 16.2633 
2.52339 1.93504 16.2815 
2.52043 1.93998 16.2633 
2.52339 1.94187 16.2815 
2.52043 1.94681 16.2633 
2.52339 1.94871 16.2815 
2.52043 1.95364 16.2633 
2.52339 1.95555 16.2815 
2.52043 1.96047 16.2633 
2.52339 1.96239 16.2815 
2.52043 1.9673 16.2633 
2.52339 1.96922 16.2815 
2.52043 1.97413 16.2633 
2.52339 1.97606 16.2815 
2.52043 1.98096 16.2633 
2.52339 1.9829 16.2815 
2.52043 1.98779 16.2633 
2.52339 1.98974 16.2815 
2.52043 1.99463 16.2633 
2.52339 1.99657 16.2815 
2.51748 1.9995 16.2451 
2.52043 2.00146 16.2633 
2.51748 2.00633 16.2451 
2.52043 2.00829 16.2633 
2.51748 2.01315 16.2451 
2.52043 2.01512 16.2633 
2.51748 2.01998 16.2451 
2.51748 2.0268 16.2451 
2.50865 2.05491 16.1908 
2.50865 2.06172 16.1908 
2.50572 2.06651 16.1727 
2.50865 2.06852 16.1908 
2.51159 2.07053 16.2088 
2.50572 2.07331 16.1727 
2.50865 2.07533 16.1908 
2.51159 2.07735 16.2088 
2.50572 2.08011 16.1727 
2.50865 2.08213 16.1908 
2.51159 2.08416 16.2088 
2.50572 2.08691 16.1727 
2.50865 2.08893 16.1908 
2.51159 2.09097 16.2088 
2.50865 2.09574 16.1908 
2.51159 2.09778 16.2088 
2.50865 2.10254 16.1908 
2.51159 2.10459 16.2088 
2.42505 1.33111 15.7922 
2.44777 1.36013 15.9134 
2.45104 1.36143 15.9308 
2.45104 1.36814 15.9308 
2.45432 1.36945 15.9483 
2.4576 1.37748 15.9658 
2.46089 1.37881 15.9834 
2.46418 1.38687 16.0009 
2.46418 1.3936 16.0009 
2.46749 1.39494 16.0186 
2.46749 1.40168 16.0186 
2.47079 1.40303 16.0362 
2.47411 1.40438 16.0539 
2.47079 1.40978 16.0362 
2.47411 1.41114 16.0539 
2.47743 1.4125 16.0716 
2.47411 1.41789 16.0539 
2.47743 1.41926 16.0716 
2.48076 1.42063 16.0894 
2.47743 1.42601 16.0716 
2.48076 1.42739 16.0894 
2.48409 1.42877 16.1072 
2.48409 1.43554 16.1072 
2.48743 1.43693 16.125 
2.48409 1.44232 16.1072 
2.48743 1.44371 16.125 
2.49078 1.44511 16.1428 
2.48743 1.45049 16.125 
2.49078 1.4519 16.1428 
2.48743 1.45727 16.125 
2.49078 1.45868 16.1428 
2.49078 1.46547 16.1428 
2.49078 1.47225 16.1428 
2.49078 1.47903 16.1428 
2.49413 1.48726 16.1607 
2.49413 1.49405 16.1607 
2.49749 1.4955 16.1787 
2.49413 1.50084 16.1607 
2.49749 1.5023 16.1787 
2.49413 1.50763 16.1607 
2.49749 1.5091 16.1787 
2.50086 1.51057 16.1966 
2.49749 1.5159 16.1787 
2.50086 1.51737 16.1966 
2.49749 1.52269 16.1787 
2.50086 1.52417 16.1966 
2.49749 1.52949 16.1787 
2.50086 1.53098 16.1966 
2.50423 1.53247 16.2146 
2.50086 1.53778 16.1966 
2.50423 1.53928 16.2146 
2.50086 1.54459 16.1966 
2.50423 1.54609 16.2146 
2.50423 1.5529 16.2146 
2.50423 1.55971 16.2146 
2.50423 1.56652 16.2146 
2.50761 1.56805 16.2326 
2.50423 1.57333 16.2146 
2.50761 1.57487 16.2326 
2.50761 1.58168 16.2326 
2.50761 1.5885 16.2326 
2.50761 1.59532 16.2326 
2.51099 1.631 16.2507 
2.51099 1.63782 16.2507 
2.51099 1.64464 16.2507 
2.51099 1.65147 16.2507 
2.51099 1.65829 16.2507 
2.51099 1.66512 16.2507 
2.51439 1.66674 16.2688 
2.51099 1.67194 16.2507 
2.51439 1.67357 16.2688 
2.51439 1.6804 16.2688 
2.51439 1.68723 16.2688 
2.51439 1.69407 16.2688 
2.51779 1.69572 16.2869 
2.51439 1.7009 16.2688 
2.51779 1.70256 16.2869 
2.51439 1.70773 16.2688 
2.51779 1.7094 16.2869 
2.51439 1.71456 16.2688 
2.51779 1.71623 16.2869 
2.51439 1.72139 16.2688 
2.51779 1.72307 16.2869 
2.51779 1.72991 16.2869 
2.52119 1.7316 16.3051 
2.51779 1.73675 16.2869 
2.52119 1.73844 16.3051 
2.51779 1.74358 16.2869 
2.52119 1.74529 16.3051 
2.51779 1.75042 16.2869 
2.52119 1.75213 16.3051 
2.51779 1.75726 16.2869 
2.52119 1.75898 16.3051 
2.51779 1.7641 16.2869 
2.52119 1.76582 16.3051 
2.51779 1.77093 16.2869 
2.51779 1.77777 16.2869 
2.51779 1.78461 16.2869 
2.51779 1.79145 16.2869 
2.51779 1.79828 16.2869 
2.51779 1.80512 16.2869 
2.51779 1.81196 16.2869 
2.51779 1.8188 16.2869 
2.51779 1.82563 16.2869 
2.51779 1.83247 16.2869 
2.52119 1.83426 16.3051 
2.51439 1.83751 16.2688 
2.51779 1.83931 16.2869 
2.52119 1.84111 16.3051 
2.51779 1.84615 16.2869 
2.52119 1.84795 16.3051 
2.51779 1.85298 16.2869 
2.52119 1.8548 16.3051 
2.51439 1.85801 16.2688 
2.51779 1.85982 16.2869 
2.52119 1.86164 16.3051 
2.51439 1.86484 16.2688 
2.51779 1.86666 16.2869 
2.52119 1.86848 16.3051 
2.51439 1.87167 16.2688 
2.51779 1.8735 16.2869 
2.51439 1.8785 16.2688 
2.51779 1.88033 16.2869 
2.51779 1.88717 16.2869 
2.51779 1.89401 16.2869 
2.51779 1.90085 16.2869 
2.51779 1.90769 16.2869 
2.51439 1.91265 16.2688 
2.51779 1.91452 16.2869 
2.51439 1.91949 16.2688 
2.51779 1.92136 16.2869 
2.51439 1.92632 16.2688 
2.51779 1.9282 16.2869 
2.51439 1.93315 16.2688 
2.51779 1.93504 16.2869 
2.51439 1.93998 16.2688 
2.51779 1.94187 16.2869 
2.51439 1.94681 16.2688 
2.51779 1.94871 16.2869 
2.51439 1.95364 16.2688 
2.51779 1.95555 16.2869 
2.51099 1.95856 16.2507 
2.51439 1.96047 16.2688 
2.51779 1.96239 16.2869 
2.51439 1.9673 16.2688 
2.51779 1.96922 16.2869 
2.51439 1.97413 16.2688 
2.51779 1.97606 16.2869 
2.51439 1.98096 16.2688 
2.51779 1.9829 16.2869 
2.51439 1.98779 16.2688 
2.51779 1.98974 16.2869 
2.51439 1.99463 16.2688 
2.51779 1.99657 16.2869 
2.51439 2.00146 16.2688 
2.51779 2.00341 16.2869 
2.51099 2.00633 16.2507 
2.51439 2.00829 16.2688 
2.51099 2.01315 16.2507 
2.51439 2.01512 16.2688 
2.51099 2.01998 16.2507 
2.51439 2.02195 16.2688 
2.51099 2.0268 16.2507 
2.50761 2.03165 16.2326 
2.50761 2.03846 16.2326 
2.50086 2.05491 16.1966 
2.50086 2.06172 16.1966 
2.49749 2.06651 16.1787 
2.50086 2.06852 16.1966 
2.50423 2.07053 16.2146 
2.53488 2.08883 16.3782 
2.54177 2.09294 16.4149 
2.54522 2.095 16.4333 
2.49749 2.07331 16.1787 
2.50086 2.07533 16.1966 
2.50423 2.07735 16.2146 
2.53488 2.0957 16.3782 
2.54522 2.10189 16.4333 
2.49749 2.08011 16.1787 
2.50086 2.08213 16.1966 
2.50423 2.08416 16.2146 
2.51099 2.08822 16.2507 
2.51439 2.09026 16.2688 
2.51779 2.0923 16.2869 
2.52802 2.09845 16.3416 
2.54522 2.10878 16.4333 
2.54868 2.11086 16.4518 
2.55215 2.11294 16.4703 
2.50086 2.08893 16.1966 
2.50423 2.09097 16.2146 
2.51439 2.09709 16.2688 
2.50086 2.09574 16.1966 
2.50423 2.09778 16.2146 
2.50086 2.10254 16.1966 
2.50423 2.10459 16.2146 
2.40039 1.32194 15.766 
2.43329 1.36013 15.9208 
2.44068 1.36945 15.9555 
2.44439 1.37077 15.973 
2.44439 1.37748 15.973 
2.4481 1.37881 15.9904 
2.45182 1.38687 16.0079 
2.45554 1.39494 16.0255 
2.45554 1.40168 16.0255 
2.45928 1.40303 16.043 
2.46302 1.40438 16.0606 
2.45928 1.40978 16.043 
2.46302 1.41114 16.0606 
2.46677 1.4125 16.0783 
2.46302 1.41789 16.0606 
2.46677 1.41926 16.0783 
2.47052 1.42063 16.0959 
2.47052 1.42739 16.0959 
2.47428 1.42877 16.1136 
2.47428 1.43554 16.1136 
2.47805 1.43693 16.1314 
2.47428 1.44232 16.1136 
2.47805 1.44371 16.1314 
2.48183 1.44511 16.1491 
2.47805 1.45049 16.1314 
2.48183 1.4519 16.1491 
2.47805 1.45727 16.1314 
2.48183 1.45868 16.1491 
2.48183 1.46547 16.1491 
2.48183 1.47225 16.1491 
2.48562 1.47368 16.1669 
2.48183 1.47903 16.1491 
2.48562 1.48047 16.1669 
2.48562 1.48726 16.1669 
2.48562 1.49405 16.1669 
2.48941 1.4955 16.1848 
2.48562 1.50084 16.1669 
2.48941 1.5023 16.1848 
2.48562 1.50763 16.1669 
2.48941 1.5091 16.1848 
2.49321 1.51057 16.2027 
2.48562 1.51443 16.1669 
2.48941 1.5159 16.1848 
2.49321 1.51737 16.2027 
2.48941 1.52269 16.1848 
2.49321 1.52417 16.2027 
2.49701 1.52566 16.2206 
2.48941 1.52949 16.1848 
2.49321 1.53098 16.2027 
2.49701 1.53247 16.2206 
2.48941 1.53629 16.1848 
2.49321 1.53778 16.2027 
2.49701 1.53928 16.2206 
2.49321 1.54459 16.2027 
2.49701 1.54609 16.2206 
2.49321 1.55139 16.2027 
2.49701 1.5529 16.2206 
2.49701 1.55971 16.2206 
2.49701 1.56652 16.2206 
2.49701 1.58014 16.2206 
2.49701 1.58696 16.2206 
2.50465 1.63782 16.2565 
2.50465 1.64464 16.2565 
2.50465 1.65147 16.2565 
2.50465 1.65829 16.2565 
2.50465 1.66512 16.2565 
2.50465 1.67194 16.2565 
2.50848 1.67357 16.2745 
2.50465 1.67877 16.2565 
2.50848 1.6804 16.2745 
2.50465 1.68559 16.2565 
2.50848 1.68723 16.2745 
2.50848 1.69407 16.2745 
2.51231 1.69572 16.2926 
2.50848 1.7009 16.2745 
2.51231 1.70256 16.2926 
2.50848 1.70773 16.2745 
2.51231 1.7094 16.2926 
2.50848 1.71456 16.2745 
2.51231 1.71623 16.2926 
2.50848 1.72139 16.2745 
2.51231 1.72307 16.2926 
2.50848 1.72822 16.2745 
2.51231 1.72991 16.2926 
2.51231 1.73675 16.2926 
2.51616 1.73844 16.3106 
2.51231 1.74358 16.2926 
2.51616 1.74529 16.3106 
2.51231 1.75042 16.2926 
2.51616 1.75213 16.3106 
2.51231 1.75726 16.2926 
2.51616 1.75898 16.3106 
2.51231 1.7641 16.2926 
2.51231 1.77093 16.2926 
2.51231 1.77777 16.2926 
2.51231 1.78461 16.2926 
2.51231 1.79145 16.2926 
2.51231 1.79828 16.2926 
2.51231 1.80512 16.2926 
2.51231 1.81196 16.2926 
2.51231 1.8188 16.2926 
2.51231 1.82563 16.2926 
2.51616 1.82742 16.3106 
2.50848 1.83068 16.2745 
2.51231 1.83247 16.2926 
2.51616 1.83426 16.3106 
2.51231 1.83931 16.2926 
2.51616 1.84111 16.3106 
2.51231 1.84615 16.2926 
2.51616 1.84795 16.3106 
2.51231 1.85298 16.2926 
2.51616 1.8548 16.3106 
2.50848 1.85801 16.2745 
2.51231 1.85982 16.2926 
2.51616 1.86164 16.3106 
2.50848 1.86484 16.2745 
2.51231 1.86666 16.2926 
2.51616 1.86848 16.3106 
2.50848 1.87167 16.2745 
2.51231 1.8735 16.2926 
2.51616 1.87533 16.3106 
2.50848 1.8785 16.2745 
2.51231 1.88033 16.2926 
2.50848 1.88533 16.2745 
2.51231 1.88717 16.2926 
2.50848 1.89216 16.2745 
2.51231 1.89401 16.2926 
2.50848 1.89899 16.2745 
2.51231 1.90085 16.2926 
2.50848 1.90582 16.2745 
2.51231 1.90769 16.2926 
2.51231 1.91452 16.2926 
2.51231 1.92136 16.2926 
2.51231 1.9282 16.2926 
2.50848 1.93315 16.2745 
2.51231 1.93504 16.2926 
2.50848 1.93998 16.2745 
2.51231 1.94187 16.2926 
2.50848 1.94681 16.2745 
2.51231 1.94871 16.2926 
2.50848 1.95364 16.2745 
2.51231 1.95555 16.2926 
2.50848 1.96047 16.2745 
2.51231 1.96239 16.2926 
2.50848 1.9673 16.2745 
2.51231 1.96922 16.2926 
2.50848 1.97413 16.2745 
2.51231 1.97606 16.2926 
2.50848 1.98096 16.2745 
2.51231 1.9829 16.2926 
2.50848 1.98779 16.2745 
2.51231 1.98974 16.2926 
2.50848 1.99463 16.2745 
2.51231 1.99657 16.2926 
2.50848 2.00146 16.2745 
2.51231 2.00341 16.2926 
2.50465 2.00633 16.2565 
2.50848 2.00829 16.2745 
2.50465 2.01315 16.2565 
2.50848 2.01512 16.2745 
2.50465 2.01998 16.2565 
2.50848 2.02195 16.2745 
2.50465 2.0268 16.2565 
2.50848 2.02878 16.2745 
2.50083 2.03165 16.2385 
2.50083 2.03846 16.2385 
2.49701 2.04329 16.2206 
2.49701 2.0501 16.2206 
2.49321 2.05491 16.2027 
2.49701 2.05691 16.2206 
2.48941 2.05972 16.1848 
2.49321 2.06172 16.2027 
2.54328 2.0881 16.4382 
2.48562 2.06451 16.1669 
2.48941 2.06651 16.1848 
2.49321 2.06852 16.2027 
2.49701 2.07053 16.2206 
2.53161 2.08883 16.3833 
2.53938 2.09294 16.4199 
2.54328 2.095 16.4382 
2.54718 2.09706 16.4566 
2.55109 2.09913 16.475 
2.48562 2.0713 16.1669 
2.48941 2.07331 16.1848 
2.49321 2.07533 16.2027 
2.49701 2.07735 16.2206 
2.50465 2.0814 16.2565 
2.54718 2.10396 16.4566 
2.55109 2.10603 16.475 
2.48941 2.08011 16.1848 
2.49321 2.08213 16.2027 
2.49701 2.08416 16.2206 
2.50465 2.08822 16.2565 
2.50848 2.09026 16.2745 
2.51231 2.0923 16.2926 
2.54718 2.11086 16.4566 
2.55109 2.11294 16.475 
2.48941 2.08691 16.1848 
2.49321 2.08893 16.2027 
2.49321 2.09574 16.2027 
2.419 1.36013 15.9285 
2.42722 1.36945 15.9631 
2.43135 1.37077 15.9804 
2.43548 1.37881 15.9978 
2.43962 1.38013 16.0152 
2.43962 1.38687 16.0152 
2.44377 1.3882 16.0326 
2.44377 1.39494 16.0326 
2.44793 1.40303 16.0501 
2.45209 1.40438 16.0676 
2.45627 1.40574 16.0852 
2.44793 1.40978 16.0501 
2.45209 1.41114 16.0676 
2.45627 1.4125 16.0852 
2.45627 1.41926 16.0852 
2.46045 1.42063 16.1027 
2.46045 1.42739 16.1027 
2.46464 1.42877 16.1203 
2.46464 1.43554 16.1203 
2.46883 1.43693 16.138 
2.47304 1.43833 16.1557 
2.46883 1.44371 16.138 
2.47304 1.44511 16.1557 
2.46883 1.45049 16.138 
2.47304 1.4519 16.1557 
2.46883 1.45727 16.138 
2.47304 1.45868 16.1557 
2.47304 1.46547 16.1557 
2.47304 1.47225 16.1557 
2.47304 1.47903 16.1557 
2.47725 1.48047 16.1734 
2.47725 1.48726 16.1734 
2.47725 1.49405 16.1734 
2.48147 1.4955 16.1911 
2.47725 1.50084 16.1734 
2.48147 1.5023 16.1911 
2.47725 1.50763 16.1734 
2.48147 1.5091 16.1911 
2.48147 1.5159 16.1911 
2.4857 1.51737 16.2089 
2.48147 1.52269 16.1911 
2.4857 1.52417 16.2089 
2.48147 1.52949 16.1911 
2.4857 1.53098 16.2089 
2.48994 1.53247 16.2267 
2.4857 1.53778 16.2089 
2.48994 1.53928 16.2267 
2.4857 1.54459 16.2089 
2.48994 1.54609 16.2267 
2.4857 1.55139 16.2089 
2.48994 1.5529 16.2267 
2.48994 1.55971 16.2267 
2.48994 1.56652 16.2267 
2.49844 1.63782 16.2624 
2.49844 1.64464 16.2624 
2.49844 1.65147 16.2624 
2.49844 1.65829 16.2624 
2.49844 1.66512 16.2624 
2.50271 1.66674 16.2803 
2.49844 1.67194 16.2624 
2.50271 1.67357 16.2803 
2.49844 1.67877 16.2624 
2.50271 1.6804 16.2803 
2.50271 1.68723 16.2803 
2.50698 1.68888 16.2983 
2.49844 1.69241 16.2624 
2.50271 1.69407 16.2803 
2.50698 1.69572 16.2983 
2.49844 1.69924 16.2624 
2.50271 1.7009 16.2803 
2.50698 1.70256 16.2983 
2.50271 1.70773 16.2803 
2.50698 1.7094 16.2983 
2.50271 1.71456 16.2803 
2.50698 1.71623 16.2983 
2.50271 1.72139 16.2803 
2.50698 1.72307 16.2983 
2.50271 1.72822 16.2803 
2.50698 1.72991 16.2983 
2.50271 1.73505 16.2803 
2.50698 1.73675 16.2983 
2.50271 1.74188 16.2803 
2.50698 1.74358 16.2983 
2.51126 1.74529 16.3163 
2.50698 1.75042 16.2983 
2.50698 1.75726 16.2983 
2.50698 1.7641 16.2983 
2.50698 1.77093 16.2983 
2.50698 1.77777 16.2983 
2.51126 1.77951 16.3163 
2.50698 1.78461 16.2983 
2.51126 1.78635 16.3163 
2.50698 1.79145 16.2983 
2.51126 1.7932 16.3163 
2.50698 1.79828 16.2983 
2.51126 1.80004 16.3163 
2.50698 1.80512 16.2983 
2.50698 1.81196 16.2983 
2.51126 1.81373 16.3163 
2.50698 1.8188 16.2983 
2.51126 1.82057 16.3163 
2.50698 1.82563 16.2983 
2.51126 1.82742 16.3163 
2.50698 1.83247 16.2983 
2.51126 1.83426 16.3163 
2.50698 1.83931 16.2983 
2.51126 1.84111 16.3163 
2.50271 1.84435 16.2803 
2.50698 1.84615 16.2983 
2.51126 1.84795 16.3163 
2.50271 1.85118 16.2803 
2.50698 1.85298 16.2983 
2.51126 1.8548 16.3163 
2.50698 1.85982 16.2983 
2.51126 1.86164 16.3163 
2.50698 1.86666 16.2983 
2.51126 1.86848 16.3163 
2.50698 1.8735 16.2983 
2.50698 1.88033 16.2983 
2.50698 1.88717 16.2983 
2.50698 1.89401 16.2983 
2.50698 1.90085 16.2983 
2.50698 1.90769 16.2983 
2.50698 1.91452 16.2983 
2.50698 1.92136 16.2983 
2.50271 1.92632 16.2803 
2.50698 1.9282 16.2983 
2.50271 1.93315 16.2803 
2.50698 1.93504 16.2983 
2.50271 1.93998 16.2803 
2.50698 1.94187 16.2983 
2.50271 1.94681 16.2803 
2.50698 1.94871 16.2983 
2.50271 1.95364 16.2803 
2.50698 1.95555 16.2983 
2.50271 1.96047 16.2803 
2.50698 1.96239 16.2983 
2.50271 1.9673 16.2803 
2.50698 1.96922 16.2983 
2.50271 1.97413 16.2803 
2.50698 1.97606 16.2983 
2.50271 1.98096 16.2803 
2.50698 1.9829 16.2983 
2.50271 1.98779 16.2803 
2.50698 1.98974 16.2983 
2.50271 1.99463 16.2803 
2.50698 1.99657 16.2983 
2.50271 2.00146 16.2803 
2.50698 2.00341 16.2983 
2.50271 2.00829 16.2803 
2.50271 2.01512 16.2803 
2.49844 2.0268 16.2624 
2.49844 2.03363 16.2624 
2.48994 2.0501 16.2267 
2.4857 2.05491 16.2089 
2.48994 2.05691 16.2267 
2.4857 2.06172 16.2089 
2.48994 2.06372 16.2267 
2.54145 2.0881 16.4432 
2.5458 2.09016 16.4614 
2.47725 2.06451 16.1734 
2.48147 2.06651 16.1911 
2.4857 2.06852 16.2089 
2.48994 2.07053 16.2267 
2.49419 2.07255 16.2445 
2.49844 2.07457 16.2624 
2.51126 2.08066 16.3163 
2.5458 2.09706 16.4614 
2.55016 2.09913 16.4797 
2.55452 2.1012 16.4981 
2.55889 2.10328 16.5165 
2.47725 2.0713 16.1734 
2.48147 2.07331 16.1911 
2.4857 2.07533 16.2089 
2.48994 2.07735 16.2267 
2.49419 2.07937 16.2445 
2.49844 2.0814 16.2624 
2.50271 2.08343 16.2803 
2.50698 2.08546 16.2983 
2.5458 2.10396 16.4614 
2.55016 2.10603 16.4797 
2.55452 2.10811 16.4981 
2.55889 2.1102 16.5165 
2.4857 2.08213 16.2089 
2.49419 2.08619 16.2445 
2.49844 2.08822 16.2624 
2.55016 2.11294 16.4797 
2.55452 2.11503 16.4981 
2.4857 2.08893 16.2089 
2.55016 2.11984 16.4797 
2.55452 2.12194 16.4981 
2.40038 1.35213 15.9195 
2.40489 1.36013 15.9366 
2.41395 1.36945 15.971 
2.41849 1.37077 15.9882 
2.42305 1.37881 16.0055 
2.42761 1.38013 16.0228 
2.42761 1.38687 16.0228 
2.43218 1.3882 16.0401 
2.43218 1.39494 16.0401 
2.43218 1.40168 16.0401 
2.43675 1.40303 16.0575 
2.44134 1.40438 16.0749 
2.44594 1.40574 16.0923 
2.44134 1.41114 16.0749 
2.44594 1.4125 16.0923 
2.44594 1.41926 16.0923 
2.45054 1.42063 16.1098 
2.45054 1.42739 16.1098 
2.45515 1.42877 16.1273 
2.45978 1.43016 16.1448 
2.45978 1.43693 16.1448 
2.46441 1.43833 16.1624 
2.45978 1.44371 16.1448 
2.46441 1.44511 16.1624 
2.45978 1.45049 16.1448 
2.46441 1.4519 16.1624 
2.45978 1.45727 16.1448 
2.46441 1.45868 16.1624 
2.46905 1.4601 16.18 
2.46441 1.46547 16.1624 
2.46905 1.46689 16.18 
2.46441 1.47225 16.1624 
2.46905 1.47368 16.18 
2.46441 1.47903 16.1624 
2.46905 1.48047 16.18 
2.46441 1.48582 16.1624 
2.46905 1.48726 16.18 
2.46905 1.49405 16.18 
2.4737 1.4955 16.1976 
2.46905 1.50084 16.18 
2.4737 1.5023 16.1976 
2.46905 1.50763 16.18 
2.4737 1.5091 16.1976 
2.47836 1.51057 16.2153 
2.4737 1.5159 16.1976 
2.47836 1.51737 16.2153 
2.4737 1.52269 16.1976 
2.4737 1.52949 16.1976 
2.47836 1.53098 16.2153 
2.47836 1.53778 16.2153 
2.48302 1.53928 16.233 
2.47836 1.54459 16.2153 
2.48302 1.54609 16.233 
2.47836 1.55139 16.2153 
2.48302 1.5529 16.233 
2.48302 1.55971 16.233 
2.48302 1.56652 16.233 
2.48302 1.57333 16.233 
2.49238 1.63782 16.2685 
2.49238 1.64464 16.2685 
2.49238 1.65147 16.2685 
2.49238 1.65829 16.2685 
2.49238 1.66512 16.2685 
2.49238 1.67194 16.2685 
2.49708 1.67357 16.2863 
2.49238 1.67877 16.2685 
2.49708 1.6804 16.2863 
2.49238 1.68559 16.2685 
2.49708 1.68723 16.2863 
2.49708 1.69407 16.2863 
2.50178 1.69572 16.3041 
2.49708 1.7009 16.2863 
2.50178 1.70256 16.3041 
2.49708 1.70773 16.2863 
2.50178 1.7094 16.3041 
2.49708 1.71456 16.2863 
2.50178 1.71623 16.3041 
2.49708 1.72139 16.2863 
2.50178 1.72307 16.3041 
2.49708 1.72822 16.2863 
2.50178 1.72991 16.3041 
2.49708 1.73505 16.2863 
2.50178 1.73675 16.3041 
2.50178 1.74358 16.3041 
2.5065 1.74529 16.322 
2.50178 1.75042 16.3041 
2.5065 1.75213 16.322 
2.50178 1.75726 16.3041 
2.5065 1.75898 16.322 
2.50178 1.7641 16.3041 
2.5065 1.76582 16.322 
2.50178 1.77093 16.3041 
2.5065 1.77266 16.322 
2.50178 1.77777 16.3041 
2.5065 1.77951 16.322 
2.50178 1.78461 16.3041 
2.5065 1.78635 16.322 
2.50178 1.79145 16.3041 
2.5065 1.7932 16.322 
2.50178 1.79828 16.3041 
2.50178 1.80512 16.3041 
2.50178 1.81196 16.3041 
2.50178 1.8188 16.3041 
2.5065 1.82057 16.322 
2.50178 1.82563 16.3041 
2.5065 1.82742 16.322 
2.49708 1.83068 16.2863 
2.50178 1.83247 16.3041 
2.5065 1.83426 16.322 
2.49708 1.83751 16.2863 
2.50178 1.83931 16.3041 
2.5065 1.84111 16.322 
2.49708 1.84435 16.2863 
2.50178 1.84615 16.3041 
2.5065 1.84795 16.322 
2.49708 1.85118 16.2863 
2.50178 1.85298 16.3041 
2.5065 1.8548 16.322 
2.50178 1.85982 16.3041 
2.5065 1.86164 16.322 
2.50178 1.86666 16.3041 
2.5065 1.86848 16.322 
2.50178 1.8735 16.3041 
2.50178 1.88033 16.3041 
2.50178 1.88717 16.3041 
2.50178 1.89401 16.3041 
2.50178 1.90085 16.3041 
2.50178 1.90769 16.3041 
2.50178 1.91452 16.3041 
2.50178 1.92136 16.3041 
2.50178 1.9282 16.3041 
2.49708 1.93315 16.2863 
2.50178 1.93504 16.3041 
2.49708 1.93998 16.2863 
2.50178 1.94187 16.3041 
2.50178 1.94871 16.3041 
2.50178 1.95555 16.3041 
2.49708 1.96047 16.2863 
2.49708 1.9673 16.2863 
2.50178 1.96922 16.3041 
2.49708 1.97413 16.2863 
2.50178 1.97606 16.3041 
2.49708 1.98096 16.2863 
2.50178 1.9829 16.3041 
2.49708 1.98779 16.2863 
2.50178 1.98974 16.3041 
2.49708 1.99463 16.2863 
2.50178 1.99657 16.3041 
2.57346 2.02626 16.576 
2.57832 2.02827 16.5945 
2.49708 2.00146 16.2863 
2.50178 2.00341 16.3041 
2.57346 2.0332 16.576 
2.57832 2.03522 16.5945 
2.49708 2.00829 16.2863 
2.50178 2.01025 16.3041 
2.56862 2.03812 16.5577 
2.57346 2.04014 16.576 
2.57832 2.04217 16.5945 
2.49708 2.01512 16.2863 
2.50178 2.01709 16.3041 
2.56862 2.04505 16.5577 
2.57346 2.04708 16.576 
2.57832 2.04911 16.5945 
2.49708 2.02195 16.2863 
2.56862 2.05199 16.5577 
2.57346 2.05402 16.576 
2.57832 2.05606 16.5945 
2.49708 2.02878 16.2863 
2.56862 2.05892 16.5577 
2.57346 2.06096 16.576 
2.57832 2.063 16.5945 
2.49238 2.03363 16.2685 
2.49708 2.03561 16.2863 
2.56862 2.06585 16.5577 
2.57346 2.0679 16.576 
2.57832 2.06995 16.5945 
2.49238 2.04045 16.2685 
2.56862 2.07278 16.5577 
2.57346 2.07484 16.576 
2.57832 2.0769 16.5945 
2.49238 2.04727 16.2685 
2.56378 2.07766 16.5393 
2.56862 2.07971 16.5577 
2.57346 2.08178 16.576 
2.48302 2.0501 16.233 
2.4877 2.0521 16.2507 
2.56378 2.08458 16.5393 
2.56862 2.08665 16.5577 
2.47836 2.05491 16.2153 
2.48302 2.05691 16.233 
2.4877 2.05892 16.2507 
2.49238 2.06092 16.2685 
2.56378 2.09151 16.5393 
2.56862 2.09358 16.5577 
2.4737 2.05972 16.1976 
2.47836 2.06172 16.2153 
2.48302 2.06372 16.233 
2.4877 2.06573 16.2507 
2.49238 2.06775 16.2685 
2.55896 2.09636 16.521 
2.56378 2.09843 16.5393 
2.56862 2.10051 16.5577 
2.46905 2.06451 16.18 
2.4737 2.06651 16.1976 
2.47836 2.06852 16.2153 
2.48302 2.07053 16.233 
2.4877 2.07255 16.2507 
2.49238 2.07457 16.2685 
2.54933 2.09913 16.4845 
2.55896 2.10328 16.521 
2.56378 2.10536 16.5393 
2.46905 2.0713 16.18 
2.4737 2.07331 16.1976 
2.47836 2.07533 16.2153 
2.48302 2.07735 16.233 
2.4877 2.07937 16.2507 
2.49238 2.0814 16.2685 
2.54933 2.10603 16.4845 
2.55414 2.10811 16.5027 
2.55896 2.1102 16.521 
2.56378 2.11228 16.5393 
2.55414 2.11503 16.5027 
2.55896 2.11712 16.521 
2.55414 2.12194 16.5027 
2.55896 2.12403 16.521 
2.39099 1.36013 15.9451 
2.39593 1.36143 15.9621 
2.40583 1.37077 15.9963 
2.4108 1.37208 16.0135 
2.4108 1.37881 16.0135 
2.41578 1.38013 16.0306 
2.41578 1.38687 16.0306 
2.42076 1.3882 16.0479 
2.42076 1.39494 16.0479 
2.42576 1.39628 16.0651 
2.43077 1.39763 16.0824 
2.42576 1.40303 16.0651 
2.43077 1.40438 16.0824 
2.43578 1.40574 16.0997 
2.43578 1.4125 16.0997 
2.44081 1.41386 16.1171 
2.44081 1.42063 16.1171 
2.44584 1.422 16.1344 
2.45089 1.42338 16.1519 
2.44584 1.42877 16.1344 
2.45089 1.43016 16.1519 
2.45089 1.43693 16.1519 
2.45594 1.43833 16.1693 
2.45089 1.44371 16.1519 
2.45594 1.44511 16.1693 
2.45089 1.45049 16.1519 
2.45594 1.4519 16.1693 
2.46101 1.45331 16.1868 
2.45594 1.45868 16.1693 
2.46101 1.4601 16.1868 
2.45594 1.46547 16.1693 
2.46101 1.46689 16.1868 
2.45594 1.47225 16.1693 
2.46101 1.47368 16.1868 
2.45594 1.47903 16.1693 
2.46101 1.48047 16.1868 
2.45594 1.48582 16.1693 
2.46101 1.48726 16.1868 
2.46608 1.48871 16.2043 
2.46101 1.49405 16.1868 
2.46608 1.4955 16.2043 
2.46101 1.50084 16.1868 
2.46608 1.5023 16.2043 
2.46608 1.5091 16.2043 
2.47116 1.51057 16.2219 
2.46608 1.5159 16.2043 
2.47116 1.51737 16.2219 
2.46608 1.52269 16.2043 
2.47116 1.52417 16.2219 
2.47116 1.53098 16.2219 
2.47626 1.53247 16.2394 
2.47116 1.53778 16.2219 
2.47626 1.53928 16.2394 
2.47116 1.54459 16.2219 
2.47626 1.54609 16.2394 
2.47116 1.55139 16.2219 
2.47626 1.5529 16.2394 
2.47626 1.55971 16.2394 
2.47626 1.56652 16.2394 
2.47626 1.57333 16.2394 
2.48647 1.63782 16.2747 
2.48647 1.64464 16.2747 
2.48647 1.65147 16.2747 
2.4916 1.65308 16.2924 
2.48647 1.65829 16.2747 
2.4916 1.65991 16.2924 
2.48647 1.66512 16.2747 
2.4916 1.66674 16.2924 
2.48647 1.67194 16.2747 
2.4916 1.67357 16.2924 
2.48647 1.67877 16.2747 
2.4916 1.6804 16.2924 
2.49673 1.68204 16.3101 
2.48647 1.68559 16.2747 
2.4916 1.68723 16.2924 
2.49673 1.68888 16.3101 
2.4916 1.69407 16.2924 
2.49673 1.69572 16.3101 
2.4916 1.7009 16.2924 
2.49673 1.70256 16.3101 
2.4916 1.70773 16.2924 
2.49673 1.7094 16.3101 
2.4916 1.71456 16.2924 
2.49673 1.71623 16.3101 
2.4916 1.72139 16.2924 
2.49673 1.72307 16.3101 
2.4916 1.72822 16.2924 
2.49673 1.72991 16.3101 
2.49673 1.73675 16.3101 
2.50188 1.73844 16.3279 
2.49673 1.74358 16.3101 
2.50188 1.74529 16.3279 
2.49673 1.75042 16.3101 
2.50188 1.75213 16.3279 
2.49673 1.75726 16.3101 
2.50188 1.75898 16.3279 
2.49673 1.7641 16.3101 
2.49673 1.77093 16.3101 
2.50188 1.77266 16.3279 
2.49673 1.77777 16.3101 
2.50188 1.77951 16.3279 
2.49673 1.78461 16.3101 
2.50188 1.78635 16.3279 
2.49673 1.79145 16.3101 
2.49673 1.79828 16.3101 
2.49673 1.80512 16.3101 
2.49673 1.81196 16.3101 
2.49673 1.8188 16.3101 
2.49673 1.82563 16.3101 
2.50188 1.82742 16.3279 
2.49673 1.83247 16.3101 
2.50188 1.83426 16.3279 
2.49673 1.83931 16.3101 
2.50188 1.84111 16.3279 
2.49673 1.84615 16.3101 
2.50188 1.84795 16.3279 
2.49673 1.85298 16.3101 
2.50188 1.8548 16.3279 
2.49673 1.85982 16.3101 
2.50188 1.86164 16.3279 
2.49673 1.86666 16.3101 
2.50188 1.86848 16.3279 
2.49673 1.8735 16.3101 
2.49673 1.88033 16.3101 
2.49673 1.88717 16.3101 
2.49673 1.89401 16.3101 
2.49673 1.90085 16.3101 
2.49673 1.90769 16.3101 
2.49673 1.91452 16.3101 
2.49673 1.92136 16.3101 
2.49673 1.9282 16.3101 
2.49673 1.93504 16.3101 
2.49673 1.94187 16.3101 
2.49673 1.94871 16.3101 
2.49673 1.95555 16.3101 
2.49673 1.96239 16.3101 
2.49673 1.96922 16.3101 
2.49673 1.97606 16.3101 
2.56967 2.00346 16.562 
2.57496 2.00544 16.5802 
2.58026 2.00743 16.5985 
2.58557 2.00943 16.6168 
2.49673 1.9829 16.3101 
2.56967 2.01039 16.562 
2.57496 2.01238 16.5802 
2.58026 2.01438 16.5985 
2.58557 2.01638 16.6168 
2.49673 1.98974 16.3101 
2.57496 2.01932 16.5802 
2.58026 2.02133 16.5985 
2.58557 2.02333 16.6168 
2.59088 2.02535 16.6352 
2.57496 2.02626 16.5802 
2.58026 2.02827 16.5985 
2.58557 2.03029 16.6168 
2.59088 2.03231 16.6352 
2.49673 2.00341 16.3101 
2.57496 2.0332 16.5802 
2.58026 2.03522 16.5985 
2.58557 2.03724 16.6168 
2.59088 2.03927 16.6352 
2.49673 2.01025 16.3101 
2.56967 2.03812 16.562 
2.57496 2.04014 16.5802 
2.58026 2.04217 16.5985 
2.58557 2.04419 16.6168 
2.59088 2.04623 16.6352 
2.49673 2.01709 16.3101 
2.56967 2.04505 16.562 
2.57496 2.04708 16.5802 
2.58026 2.04911 16.5985 
2.58557 2.05115 16.6168 
2.59088 2.05319 16.6352 
2.56967 2.05199 16.562 
2.57496 2.05402 16.5802 
2.58026 2.05606 16.5985 
2.58557 2.0581 16.6168 
2.59088 2.06015 16.6352 
2.56967 2.05892 16.562 
2.57496 2.06096 16.5802 
2.58026 2.063 16.5985 
2.58557 2.06505 16.6168 
2.59088 2.06711 16.6352 
2.56967 2.06585 16.562 
2.57496 2.0679 16.5802 
2.58026 2.06995 16.5985 
2.58557 2.07201 16.6168 
2.59088 2.07407 16.6352 
2.56967 2.07278 16.562 
2.57496 2.07484 16.5802 
2.58026 2.0769 16.5985 
2.58557 2.07896 16.6168 
2.57496 2.08178 16.5802 
2.58026 2.08384 16.5985 
2.58557 2.08591 16.6168 
2.57496 2.08872 16.5802 
2.58026 2.09079 16.5985 
2.48136 2.05892 16.2571 
2.56967 2.09358 16.562 
2.57496 2.09565 16.5802 
2.58026 2.09773 16.5985 
2.47116 2.06172 16.2219 
2.47626 2.06372 16.2394 
2.56967 2.10051 16.562 
2.57496 2.10259 16.5802 
2.58026 2.10468 16.5985 
2.56439 2.10536 16.5437 
2.56967 2.10744 16.562 
2.57496 2.10953 16.5802 
2.56439 2.11228 16.5437 
2.56967 2.11438 16.562 
2.56439 2.11921 16.5437 
2.56967 2.12131 16.562 
2.56439 2.12614 16.5437 
2.33486 1.32985 15.8196 
2.388 1.36274 15.9877 
2.39337 1.37077 16.0047 
2.39875 1.37881 16.0217 
2.40414 1.38013 16.0388 
2.40954 1.3882 16.0559 
2.40954 1.39494 16.0559 
2.42038 1.39763 16.0902 
2.42038 1.40438 16.0902 
2.42581 1.40574 16.1073 
2.42581 1.4125 16.1073 
2.43125 1.41386 16.1246 
2.43125 1.42063 16.1246 
2.43671 1.422 16.1418 
2.44217 1.42338 16.1591 
2.44764 1.42476 16.1764 
2.43671 1.42877 16.1418 
2.44217 1.43016 16.1591 
2.43671 1.43554 16.1418 
2.44217 1.43693 16.1591 
2.44764 1.43833 16.1764 
2.44217 1.44371 16.1591 
2.44764 1.44511 16.1764 
2.44764 1.4519 16.1764 
2.45313 1.45331 16.1938 
2.44764 1.45868 16.1764 
2.45313 1.4601 16.1938 
2.44764 1.46547 16.1764 
2.45313 1.46689 16.1938 
2.44764 1.47225 16.1764 
2.45313 1.47368 16.1938 
2.44764 1.47903 16.1764 
2.45313 1.48047 16.1938 
2.45313 1.48726 16.1938 
2.45863 1.48871 16.2112 
2.45313 1.49405 16.1938 
2.45863 1.4955 16.2112 
2.45863 1.5023 16.2112 
2.45863 1.5091 16.2112 
2.46413 1.51057 16.2286 
2.45863 1.5159 16.2112 
2.46413 1.51737 16.2286 
2.45863 1.52269 16.2112 
2.46413 1.52417 16.2286 
2.46965 1.52566 16.2461 
2.46413 1.53098 16.2286 
2.46965 1.53247 16.2461 
2.46413 1.53778 16.2286 
2.46965 1.53928 16.2461 
2.46413 1.54459 16.2286 
2.46965 1.54609 16.2461 
2.46965 1.5529 16.2461 
2.46965 1.55971 16.2461 
2.46965 1.56652 16.2461 
2.46965 1.57333 16.2461 
2.47518 1.57487 16.2636 
2.46965 1.58014 16.2461 
2.47518 1.58168 16.2636 
2.46965 1.58696 16.2461 
2.47518 1.5885 16.2636 
2.46965 1.59377 16.2461 
2.47518 1.59532 16.2636 
2.48072 1.59687 16.2811 
2.46965 1.60058 16.2461 
2.47518 1.60214 16.2636 
2.48072 1.6037 16.2811 
2.47518 1.60895 16.2636 
2.48072 1.61052 16.2811 
2.47518 1.61577 16.2636 
2.48072 1.61735 16.2811 
2.47518 1.62259 16.2636 
2.48072 1.62417 16.2811 
2.47518 1.62941 16.2636 
2.48072 1.631 16.2811 
2.47518 1.63622 16.2636 
2.48072 1.63782 16.2811 
2.48072 1.64464 16.2811 
2.48072 1.65147 16.2811 
2.48627 1.65308 16.2986 
2.48072 1.65829 16.2811 
2.48627 1.65991 16.2986 
2.48072 1.66512 16.2811 
2.48627 1.66674 16.2986 
2.48072 1.67194 16.2811 
2.48627 1.67357 16.2986 
2.48072 1.67877 16.2811 
2.48627 1.6804 16.2986 
2.49183 1.68204 16.3162 
2.48072 1.68559 16.2811 
2.48627 1.68723 16.2986 
2.49183 1.68888 16.3162 
2.48627 1.69407 16.2986 
2.49183 1.69572 16.3162 
2.48627 1.7009 16.2986 
2.49183 1.70256 16.3162 
2.48627 1.70773 16.2986 
2.49183 1.7094 16.3162 
2.48627 1.71456 16.2986 
2.49183 1.71623 16.3162 
2.49183 1.72307 16.3162 
2.49183 1.72991 16.3162 
2.49183 1.73675 16.3162 
2.49183 1.74358 16.3162 
2.4974 1.75898 16.3339 
2.49183 1.7641 16.3162 
2.4974 1.76582 16.3339 
2.49183 1.77093 16.3162 
2.4974 1.77266 16.3339 
2.49183 1.77777 16.3162 
2.4974 1.77951 16.3339 
2.49183 1.78461 16.3162 
2.49183 1.79145 16.3162 
2.49183 1.79828 16.3162 
2.4974 1.80004 16.3339 
2.49183 1.80512 16.3162 
2.49183 1.81196 16.3162 
2.4974 1.81373 16.3339 
2.49183 1.8188 16.3162 
2.4974 1.82057 16.3339 
2.49183 1.82563 16.3162 
2.4974 1.82742 16.3339 
2.49183 1.83247 16.3162 
2.4974 1.83426 16.3339 
2.49183 1.83931 16.3162 
2.4974 1.84111 16.3339 
2.49183 1.84615 16.3162 
2.4974 1.84795 16.3339 
2.49183 1.85298 16.3162 
2.4974 1.8548 16.3339 
2.49183 1.85982 16.3162 
2.4974 1.86164 16.3339 
2.49183 1.86666 16.3162 
2.4974 1.86848 16.3339 
2.49183 1.8735 16.3162 
2.4974 1.87533 16.3339 
2.49183 1.88033 16.3162 
2.4974 1.88217 16.3339 
2.49183 1.88717 16.3162 
2.4974 1.88902 16.3339 
2.49183 1.89401 16.3162 
2.4974 1.89586 16.3339 
2.49183 1.90085 16.3162 
2.4974 1.90271 16.3339 
2.49183 1.90769 16.3162 
2.4974 1.90955 16.3339 
2.49183 1.91452 16.3162 
2.49183 1.92136 16.3162 
2.49183 1.9282 16.3162 
2.49183 1.93504 16.3162 
2.49183 1.94187 16.3162 
2.49183 1.94871 16.3162 
2.49183 1.95555 16.3162 
2.49183 1.96239 16.3162 
2.49183 1.96922 16.3162 
2.57083 1.99653 16.5662 
2.57656 1.99851 16.5844 
2.58229 2.00049 16.6025 
2.58804 2.00248 16.6207 
2.59381 2.00447 16.6389 
2.49183 1.97606 16.3162 
2.57083 2.00346 16.5662 
2.57656 2.00544 16.5844 
2.58229 2.00743 16.6025 
2.58804 2.00943 16.6207 
2.59381 2.01143 16.6389 
2.49183 1.9829 16.3162 
2.57656 2.01238 16.5844 
2.58229 2.01438 16.6025 
2.58804 2.01638 16.6207 
2.59381 2.01839 16.6389 
2.49183 1.98974 16.3162 
2.57656 2.01932 16.5844 
2.58229 2.02133 16.6025 
2.58804 2.02333 16.6207 
2.59381 2.02535 16.6389 
2.49183 1.99657 16.3162 
2.57656 2.02626 16.5844 
2.58229 2.02827 16.6025 
2.58804 2.03029 16.6207 
2.59381 2.03231 16.6389 
2.59958 2.03433 16.6572 
2.49183 2.00341 16.3162 
2.57656 2.0332 16.5844 
2.58229 2.03522 16.6025 
2.58804 2.03724 16.6207 
2.59381 2.03927 16.6389 
2.59958 2.0413 16.6572 
2.57656 2.04014 16.5844 
2.58229 2.04217 16.6025 
2.58804 2.04419 16.6207 
2.59381 2.04623 16.6389 
2.59958 2.04826 16.6572 
2.57656 2.04708 16.5844 
2.58229 2.04911 16.6025 
2.58804 2.05115 16.6207 
2.59381 2.05319 16.6389 
2.59958 2.05523 16.6572 
2.57656 2.05402 16.5844 
2.58229 2.05606 16.6025 
2.58804 2.0581 16.6207 
2.59381 2.06015 16.6389 
2.59958 2.0622 16.6572 
2.57656 2.06096 16.5844 
2.58229 2.063 16.6025 
2.58804 2.06505 16.6207 
2.59381 2.06711 16.6389 
2.59958 2.06916 16.6572 
2.58229 2.06995 16.6025 
2.58804 2.07201 16.6207 
2.59381 2.07407 16.6389 
2.58229 2.0769 16.6025 
2.58804 2.07896 16.6207 
2.59381 2.08103 16.6389 
2.58229 2.08384 16.6025 
2.58804 2.08591 16.6207 
2.59381 2.08799 16.6389 
2.58804 2.09286 16.6207 
2.58229 2.09773 16.6025 
2.58229 2.10468 16.6025 
2.57656 2.10953 16.5844 
2.58229 2.11163 16.6025 
2.57656 2.11647 16.5844 
2.58229 2.11857 16.6025 
2.57656 2.12341 16.5844 
2.31815 1.32985 15.8297 
2.35806 1.35213 15.9462 
2.36957 1.36143 15.9797 
2.37534 1.36274 15.9965 
2.38111 1.37077 16.0134 
2.3869 1.37208 16.0303 
2.39271 1.3734 16.0472 
2.3869 1.37881 16.0303 
2.39271 1.38013 16.0472 
2.39852 1.38146 16.0642 
2.39852 1.3882 16.0642 
2.41018 1.39088 16.0982 
2.39852 1.39494 16.0642 
2.41018 1.39763 16.0982 
2.41018 1.40438 16.0982 
2.41602 1.40574 16.1152 
2.41602 1.4125 16.1152 
2.42188 1.41386 16.1323 
2.42775 1.41523 16.1494 
2.42188 1.42063 16.1323 
2.42775 1.422 16.1494 
2.43363 1.42338 16.1666 
2.43952 1.42476 16.1838 
2.43952 1.43154 16.1838 
2.43363 1.43693 16.1666 
2.43952 1.43833 16.1838 
2.44543 1.43972 16.201 
2.43363 1.44371 16.1666 
2.43952 1.44511 16.1838 
2.44543 1.44651 16.201 
2.43952 1.4519 16.1838 
2.44543 1.45331 16.201 
2.43952 1.45868 16.1838 
2.44543 1.4601 16.201 
2.43952 1.46547 16.1838 
2.44543 1.46689 16.201 
2.43952 1.47225 16.1838 
2.44543 1.47368 16.201 
2.43952 1.47903 16.1838 
2.44543 1.48047 16.201 
2.44543 1.48726 16.201 
2.45134 1.48871 16.2182 
2.44543 1.49405 16.201 
2.45134 1.4955 16.2182 
2.45727 1.49696 16.2355 
2.45134 1.5023 16.2182 
2.45727 1.50376 16.2355 
2.45134 1.5091 16.2182 
2.45727 1.51057 16.2355 
2.45134 1.5159 16.2182 
2.45727 1.51737 16.2355 
2.4632 1.51885 16.2528 
2.45134 1.52269 16.2182 
2.45727 1.52417 16.2355 
2.4632 1.52566 16.2528 
2.45134 1.52949 16.2182 
2.45727 1.53098 16.2355 
2.4632 1.53247 16.2528 
2.45727 1.53778 16.2355 
2.4632 1.53928 16.2528 
2.45727 1.54459 16.2355 
2.4632 1.54609 16.2528 
2.4632 1.5529 16.2528 
2.4632 1.55971 16.2528 
2.4632 1.56652 16.2528 
2.4632 1.57333 16.2528 
2.46915 1.57487 16.2702 
2.4632 1.58014 16.2528 
2.46915 1.58168 16.2702 
2.4632 1.58696 16.2528 
2.46915 1.5885 16.2702 
2.47511 1.59005 16.2876 
2.4632 1.59377 16.2528 
2.46915 1.59532 16.2702 
2.47511 1.59687 16.2876 
2.4632 1.60058 16.2528 
2.46915 1.60214 16.2702 
2.47511 1.6037 16.2876 
2.46915 1.60895 16.2702 
2.47511 1.61052 16.2876 
2.46915 1.61577 16.2702 
2.47511 1.61735 16.2876 
2.47511 1.62417 16.2876 
2.47511 1.631 16.2876 
2.47511 1.63782 16.2876 
2.47511 1.64464 16.2876 
2.48109 1.64625 16.305 
2.47511 1.65147 16.2876 
2.48109 1.65308 16.305 
2.47511 1.65829 16.2876 
2.48109 1.65991 16.305 
2.47511 1.66512 16.2876 
2.48109 1.66674 16.305 
2.48109 1.67357 16.305 
2.48707 1.67521 16.3225 
2.48109 1.6804 16.305 
2.48707 1.68204 16.3225 
2.48109 1.68723 16.305 
2.48707 1.68888 16.3225 
2.48109 1.69407 16.305 
2.48707 1.69572 16.3225 
2.48707 1.70256 16.3225 
2.48707 1.7094 16.3225 
2.48707 1.71623 16.3225 
2.48707 1.72307 16.3225 
2.48707 1.72991 16.3225 
2.48707 1.73675 16.3225 
2.48707 1.74358 16.3225 
2.49306 1.77266 16.34 
2.48707 1.77777 16.3225 
2.49306 1.77951 16.34 
2.48707 1.78461 16.3225 
2.49306 1.78635 16.34 
2.48707 1.79145 16.3225 
2.49306 1.7932 16.34 
2.48707 1.79828 16.3225 
2.49306 1.80004 16.34 
2.48707 1.80512 16.3225 
2.48707 1.81196 16.3225 
2.49306 1.81373 16.34 
2.48707 1.8188 16.3225 
2.49306 1.82057 16.34 
2.48707 1.82563 16.3225 
2.49306 1.82742 16.34 
2.48707 1.83247 16.3225 
2.49306 1.83426 16.34 
2.48707 1.83931 16.3225 
2.49306 1.84111 16.34 
2.48707 1.84615 16.3225 
2.49306 1.84795 16.34 
2.48707 1.85298 16.3225 
2.49306 1.8548 16.34 
2.48707 1.85982 16.3225 
2.49306 1.86164 16.34 
2.48707 1.86666 16.3225 
2.49306 1.86848 16.34 
2.48707 1.8735 16.3225 
2.49306 1.87533 16.34 
2.48707 1.88033 16.3225 
2.49306 1.88217 16.34 
2.48707 1.88717 16.3225 
2.49306 1.88902 16.34 
2.48707 1.89401 16.3225 
2.49306 1.89586 16.34 
2.48707 1.90085 16.3225 
2.49306 1.90271 16.34 
2.48707 1.90769 16.3225 
2.49306 1.90955 16.34 
2.48707 1.91452 16.3225 
2.48707 1.92136 16.3225 
2.48707 1.9282 16.3225 
2.48707 1.93504 16.3225 
2.48707 1.94187 16.3225 
2.48707 1.94871 16.3225 
2.58443 1.97965 16.6065 
2.48707 1.95555 16.3225 
2.57825 1.98463 16.5884 
2.58443 1.9866 16.6065 
2.59062 1.98857 16.6245 
2.48707 1.96239 16.3225 
2.57209 1.98959 16.5705 
2.57825 1.99157 16.5884 
2.58443 1.99354 16.6065 
2.59062 1.99552 16.6245 
2.59682 1.99751 16.6426 
2.48707 1.96922 16.3225 
2.57825 1.99851 16.5884 
2.58443 2.00049 16.6065 
2.59062 2.00248 16.6245 
2.59682 2.00447 16.6426 
2.60303 2.00646 16.6607 
2.48707 1.97606 16.3225 
2.57825 2.00544 16.5884 
2.58443 2.00743 16.6065 
2.59062 2.00943 16.6245 
2.59682 2.01143 16.6426 
2.60303 2.01343 16.6607 
2.48707 1.9829 16.3225 
2.57825 2.01238 16.5884 
2.58443 2.01438 16.6065 
2.59062 2.01638 16.6245 
2.59682 2.01839 16.6426 
2.60303 2.0204 16.6607 
2.60925 2.02241 16.6789 
2.48707 1.98974 16.3225 
2.57825 2.01932 16.5884 
2.58443 2.02133 16.6065 
2.59062 2.02333 16.6245 
2.59682 2.02535 16.6426 
2.60303 2.02736 16.6607 
2.60925 2.02938 16.6789 
2.48707 1.99657 16.3225 
2.57825 2.02626 16.5884 
2.58443 2.02827 16.6065 
2.59062 2.03029 16.6245 
2.59682 2.03231 16.6426 
2.60303 2.03433 16.6607 
2.60925 2.03636 16.6789 
2.48707 2.00341 16.3225 
2.57825 2.0332 16.5884 
2.58443 2.03522 16.6065 
2.59062 2.03724 16.6245 
2.59682 2.03927 16.6426 
2.60303 2.0413 16.6607 
2.60925 2.04333 16.6789 
2.58443 2.04217 16.6065 
2.59062 2.04419 16.6245 
2.59682 2.04623 16.6426 
2.60303 2.04826 16.6607 
2.60925 2.0503 16.6789 
2.58443 2.04911 16.6065 
2.59062 2.05115 16.6245 
2.59682 2.05319 16.6426 
2.60303 2.05523 16.6607 
2.60925 2.05728 16.6789 
2.59062 2.0581 16.6245 
2.59682 2.06015 16.6426 
2.60303 2.0622 16.6607 
2.60925 2.06425 16.6789 
2.59062 2.06505 16.6245 
2.59682 2.06711 16.6426 
2.60303 2.06916 16.6607 
2.59682 2.07407 16.6426 
2.59682 2.08103 16.6426 
2.59682 2.08799 16.6426 
2.59682 2.09495 16.6426 
2.59682 2.10191 16.6426 
2.59682 2.10887 16.6426 
2.58443 2.11163 16.6065 
2.59062 2.11372 16.6245 
2.58443 2.11857 16.6065 
2.59062 2.12068 16.6245 
2.58443 2.12552 16.6065 
2.59062 2.12763 16.6245 
2.58443 2.13247 16.6065 
2.28355 1.31281 15.7913 
2.28959 1.32069 15.8076 
2.30169 1.32985 15.8403 
2.33827 1.35084 15.9391 
2.36289 1.36274 16.0057 
2.36907 1.36405 16.0224 
2.36907 1.37077 16.0224 
2.37527 1.37208 16.0391 
2.38148 1.3734 16.0559 
2.38148 1.38013 16.0559 
2.3877 1.38146 16.0727 
2.39393 1.38279 16.0896 
2.3877 1.3882 16.0727 
2.39393 1.38954 16.0896 
2.40017 1.39088 16.1064 
2.40017 1.39763 16.1064 
2.40643 1.39898 16.1233 
2.40643 1.40574 16.1233 
2.4127 1.4071 16.1403 
2.4127 1.41386 16.1403 
2.41898 1.41523 16.1573 
2.42527 1.4166 16.1743 
2.41898 1.422 16.1573 
2.42527 1.42338 16.1743 
2.43158 1.42476 16.1913 
2.42527 1.43016 16.1743 
2.43158 1.43154 16.1913 
2.4379 1.43293 16.2084 
2.42527 1.43693 16.1743 
2.43158 1.43833 16.1913 
2.4379 1.43972 16.2084 
2.43158 1.44511 16.1913 
2.4379 1.44651 16.2084 
2.43158 1.4519 16.1913 
2.4379 1.45331 16.2084 
2.43158 1.45868 16.1913 
2.4379 1.4601 16.2084 
2.43158 1.46547 16.1913 
2.4379 1.46689 16.2084 
2.43158 1.47225 16.1913 
2.4379 1.47368 16.2084 
2.4379 1.48047 16.2084 
2.44423 1.48191 16.2255 
2.4379 1.48726 16.2084 
2.45057 1.49015 16.2426 
2.4379 1.49405 16.2084 
2.44423 1.4955 16.2255 
2.45057 1.49696 16.2426 
2.44423 1.5023 16.2255 
2.45057 1.50376 16.2426 
2.44423 1.5091 16.2255 
2.45057 1.51057 16.2426 
2.45692 1.51204 16.2598 
2.44423 1.5159 16.2255 
2.45692 1.51885 16.2598 
2.44423 1.52269 16.2255 
2.45057 1.52417 16.2426 
2.45692 1.52566 16.2598 
2.44423 1.52949 16.2255 
2.45057 1.53098 16.2426 
2.45692 1.53247 16.2598 
2.45057 1.53778 16.2426 
2.45692 1.53928 16.2598 
2.45057 1.54459 16.2426 
2.45692 1.54609 16.2598 
2.45692 1.5529 16.2598 
2.45692 1.55971 16.2598 
2.45692 1.56652 16.2598 
2.46329 1.56805 16.277 
2.45692 1.57333 16.2598 
2.46329 1.57487 16.277 
2.46329 1.58168 16.277 
2.46967 1.58323 16.2942 
2.46329 1.5885 16.277 
2.46967 1.59005 16.2942 
2.46967 1.59687 16.2942 
2.46967 1.6037 16.2942 
2.46967 1.61052 16.2942 
2.46967 1.61735 16.2942 
2.46967 1.62417 16.2942 
2.47606 1.62576 16.3115 
2.46967 1.631 16.2942 
2.47606 1.63259 16.3115 
2.46967 1.63782 16.2942 
2.47606 1.63942 16.3115 
2.46967 1.64464 16.2942 
2.47606 1.64625 16.3115 
2.46967 1.65147 16.2942 
2.47606 1.65308 16.3115 
2.47606 1.65991 16.3115 
2.47606 1.66674 16.3115 
2.48246 1.66837 16.3288 
2.47606 1.67357 16.3115 
2.48246 1.67521 16.3288 
2.47606 1.6804 16.3115 
2.48246 1.68204 16.3288 
2.47606 1.68723 16.3115 
2.48246 1.68888 16.3288 
2.47606 1.69407 16.3115 
2.48246 1.69572 16.3288 
2.47606 1.7009 16.3115 
2.48246 1.70256 16.3288 
2.47606 1.70773 16.3115 
2.48246 1.7094 16.3288 
2.48246 1.71623 16.3288 
2.48246 1.72307 16.3288 
2.48246 1.72991 16.3288 
2.48246 1.73675 16.3288 
2.48246 1.74358 16.3288 
2.48246 1.75042 16.3288 
2.48246 1.78461 16.3288 
2.48246 1.79145 16.3288 
2.48888 1.7932 16.3461 
2.48246 1.79828 16.3288 
2.48888 1.80004 16.3461 
2.48246 1.80512 16.3288 
2.48246 1.81196 16.3288 
2.48888 1.81373 16.3461 
2.48246 1.8188 16.3288 
2.48888 1.82057 16.3461 
2.48246 1.82563 16.3288 
2.48888 1.82742 16.3461 
2.49531 1.82921 16.3635 
2.48246 1.83247 16.3288 
2.48888 1.83426 16.3461 
2.49531 1.83606 16.3635 
2.48246 1.83931 16.3288 
2.48888 1.84111 16.3461 
2.49531 1.84291 16.3635 
2.48246 1.84615 16.3288 
2.48888 1.84795 16.3461 
2.49531 1.84976 16.3635 
2.48246 1.85298 16.3288 
2.48888 1.8548 16.3461 
2.49531 1.85661 16.3635 
2.48246 1.85982 16.3288 
2.48888 1.86164 16.3461 
2.48246 1.86666 16.3288 
2.48888 1.86848 16.3461 
2.48246 1.8735 16.3288 
2.48888 1.87533 16.3461 
2.48246 1.88033 16.3288 
2.48888 1.88217 16.3461 
2.48246 1.88717 16.3288 
2.48888 1.88902 16.3461 
2.48246 1.89401 16.3288 
2.48888 1.89586 16.3461 
2.48246 1.90085 16.3288 
2.48888 1.90271 16.3461 
2.48246 1.90769 16.3288 
2.48888 1.90955 16.3461 
2.48246 1.91452 16.3288 
2.48888 1.91639 16.3461 
2.48246 1.92136 16.3288 
2.48246 1.9282 16.3288 
2.48246 1.93504 16.3288 
2.48888 1.93693 16.3461 
2.48246 1.94187 16.3288 
2.48888 1.94377 16.3461 
2.58005 1.97075 16.5925 
2.58666 1.9727 16.6104 
2.59328 1.97466 16.6283 
2.48246 1.94871 16.3288 
2.48888 1.95062 16.3461 
2.58666 1.97965 16.6104 
2.59328 1.98162 16.6283 
2.59991 1.98359 16.6462 
2.48246 1.95555 16.3288 
2.59328 1.98857 16.6283 
2.59991 1.99055 16.6462 
2.60656 1.99253 16.6642 
2.48246 1.96239 16.3288 
2.59328 1.99552 16.6283 
2.59991 1.99751 16.6462 
2.60656 1.99949 16.6642 
2.61322 2.00149 16.6822 
2.48888 1.97115 16.3461 
2.59328 2.00248 16.6283 
2.59991 2.00447 16.6462 
2.60656 2.00646 16.6642 
2.61322 2.00846 16.6822 
2.48888 1.97799 16.3461 
2.59328 2.00943 16.6283 
2.59991 2.01143 16.6462 
2.60656 2.01343 16.6642 
2.61322 2.01543 16.6822 
2.6199 2.01744 16.7002 
2.48888 1.98484 16.3461 
2.59328 2.01638 16.6283 
2.59991 2.01839 16.6462 
2.60656 2.0204 16.6642 
2.61322 2.02241 16.6822 
2.6199 2.02443 16.7002 
2.59328 2.02333 16.6283 
2.59991 2.02535 16.6462 
2.60656 2.02736 16.6642 
2.61322 2.02938 16.6822 
2.6199 2.03141 16.7002 
2.48246 1.99657 16.3288 
2.59991 2.03231 16.6462 
2.60656 2.03433 16.6642 
2.61322 2.03636 16.6822 
2.6199 2.03839 16.7002 
2.59991 2.03927 16.6462 
2.60656 2.0413 16.6642 
2.61322 2.04333 16.6822 
2.6199 2.04537 16.7002 
2.60656 2.04826 16.6642 
2.61322 2.0503 16.6822 
2.6199 2.05235 16.7002 
2.60656 2.05523 16.6642 
2.61322 2.05728 16.6822 
2.6199 2.05933 16.7002 
2.60656 2.0622 16.6642 
2.61322 2.06425 16.6822 
2.60656 2.06916 16.6642 
