VERSION .7
FIELDS x y z
SIZE 4 4 4
TYPE F F F
COUNT 1 1 1
WIDTH 1927
HEIGHT 1
VIEWPOINT 0 0 0 1 0 0 0
POINTS 1927
DATA ascii
3.55035 2.04522 17.0053 
3.57101 2.04735 17.0088 
3.59171 2.04948 17.0123 
3.52974 2.05037 17.0018 
3.55035 2.0525 17.0053 
3.57101 2.05464 17.0088 
3.59171 2.05678 17.0123 
3.61245 2.05892 17.0158 
3.63324 2.06107 17.0193 
3.65407 2.06323 17.0228 
3.67494 2.06539 17.0264 
3.63324 2.06838 17.0193 
3.65407 2.07054 17.0228 
3.67494 2.07271 17.0264 
3.69586 2.07488 17.0299 
3.71682 2.07706 17.0334 
3.73783 2.07924 17.037 
3.75887 2.08142 17.0405 
3.67494 2.08003 17.0264 
3.69586 2.08221 17.0299 
3.71682 2.0844 17.0334 
3.73783 2.08658 17.037 
3.75887 2.08878 17.0405 
3.77997 2.09097 17.0441 
3.80111 2.09317 17.0477 
3.82229 2.09538 17.0513 
3.84352 2.09759 17.0549 
3.69586 2.08954 17.0299 
3.71682 2.09173 17.0334 
3.73783 2.09393 17.037 
3.75887 2.09613 17.0405 
3.77997 2.09833 17.0441 
3.80111 2.10054 17.0477 
3.82229 2.10276 17.0513 
3.84352 2.10498 17.0549 
3.86479 2.1072 17.0585 
3.88611 2.10943 17.0621 
3.69586 2.09688 17.0299 
3.71682 2.09907 17.0334 
3.73783 2.10128 17.037 
3.75887 2.10348 17.0405 
3.77997 2.1057 17.0441 
3.80111 2.10791 17.0477 
3.82229 2.11014 17.0513 
3.84352 2.11236 17.0549 
3.86479 2.11459 17.0585 
3.88611 2.11683 17.0621 
3.90747 2.11907 17.0657 
3.69586 2.10421 17.0299 
3.71682 2.10641 17.0334 
3.73783 2.10862 17.037 
3.75887 2.11084 17.0405 
3.77997 2.11306 17.0441 
3.80111 2.11528 17.0477 
3.82229 2.11751 17.0513 
3.84352 2.11975 17.0549 
3.86479 2.12199 17.0585 
3.88611 2.12423 17.0621 
3.90747 2.12648 17.0657 
3.92888 2.12873 17.0693 
3.95033 2.13099 17.0729 
3.82229 2.12489 17.0513 
3.84352 2.12713 17.0549 
3.86479 2.12938 17.0585 
3.88611 2.13163 17.0621 
3.90747 2.13389 17.0657 
3.92888 2.13615 17.0693 
3.95033 2.13842 17.0729 
3.82229 2.13227 17.0513 
3.84352 2.13452 17.0549 
3.86479 2.13678 17.0585 
3.88611 2.13903 17.0621 
3.90747 2.1413 17.0657 
3.92888 2.14357 17.0693 
3.95033 2.14584 17.0729 
3.97183 2.14812 17.0766 
3.82229 2.13965 17.0513 
3.84352 2.14191 17.0549 
3.86479 2.14417 17.0585 
3.88611 2.14644 17.0621 
3.90747 2.14871 17.0657 
3.92888 2.15098 17.0693 
3.95033 2.15327 17.0729 
3.97183 2.15555 17.0766 
3.99337 2.15784 17.0802 
3.84352 2.14929 17.0549 
3.86479 2.15156 17.0585 
3.88611 2.15384 17.0621 
3.90747 2.15612 17.0657 
3.92888 2.1584 17.0693 
3.95033 2.16069 17.0729 
3.97183 2.16299 17.0766 
3.99337 2.16528 17.0802 
4.01496 2.16759 17.0839 
3.86479 2.15896 17.0585 
3.88611 2.16124 17.0621 
3.90747 2.16353 17.0657 
3.92888 2.16582 17.0693 
3.95033 2.16812 17.0729 
3.97183 2.17042 17.0766 
3.99337 2.17273 17.0802 
4.01496 2.17504 17.0839 
4.0366 2.17735 17.0875 
3.86479 2.16635 17.0585 
3.88611 2.16864 17.0621 
3.90747 2.17094 17.0657 
3.92888 2.17324 17.0693 
3.95033 2.17554 17.0729 
3.97183 2.17785 17.0766 
3.99337 2.18017 17.0802 
4.01496 2.18249 17.0839 
4.0366 2.18481 17.0875 
3.86479 2.17374 17.0585 
3.88611 2.17604 17.0621 
3.90747 2.17834 17.0657 
3.92888 2.18065 17.0693 
3.95033 2.18297 17.0729 
3.97183 2.18528 17.0766 
3.99337 2.18761 17.0802 
4.01496 2.18993 17.0839 
4.0366 2.19227 17.0875 
4.05828 2.19461 17.0912 
3.88611 2.18344 17.0621 
3.90747 2.18575 17.0657 
3.92888 2.18807 17.0693 
3.95033 2.19039 17.0729 
3.97183 2.19272 17.0766 
3.99337 2.19505 17.0802 
4.01496 2.19738 17.0839 
4.0366 2.19972 17.0875 
4.05828 2.20207 17.0912 
3.90747 2.19316 17.0657 
3.92888 2.19549 17.0693 
3.95033 2.19782 17.0729 
3.97183 2.20015 17.0766 
3.99337 2.20249 17.0802 
4.01496 2.20483 17.0839 
4.0366 2.20718 17.0875 
4.05828 2.20953 17.0912 
4.08001 2.21189 17.0949 
3.90747 2.20057 17.0657 
3.92888 2.2029 17.0693 
3.95033 2.20524 17.0729 
3.97183 2.20758 17.0766 
3.99337 2.20993 17.0802 
4.01496 2.21228 17.0839 
4.0366 2.21464 17.0875 
4.05828 2.217 17.0912 
4.08001 2.21937 17.0949 
3.90747 2.20798 17.0657 
3.92888 2.21032 17.0693 
3.95033 2.21267 17.0729 
3.97183 2.21502 17.0766 
3.99337 2.21737 17.0802 
4.01496 2.21973 17.0839 
4.0366 2.22209 17.0875 
4.05828 2.22446 17.0912 
4.08001 2.22684 17.0949 
3.90747 2.21539 17.0657 
3.92888 2.21774 17.0693 
3.95033 2.22009 17.0729 
3.97183 2.22245 17.0766 
3.99337 2.22481 17.0802 
4.01496 2.22718 17.0839 
4.0366 2.22955 17.0875 
4.05828 2.23193 17.0912 
4.08001 2.23431 17.0949 
3.95033 2.22752 17.0729 
3.97183 2.22988 17.0766 
3.99337 2.23225 17.0802 
4.01496 2.23463 17.0839 
4.0366 2.23701 17.0875 
4.05828 2.23939 17.0912 
4.08001 2.24178 17.0949 
3.95033 2.23494 17.0729 
3.97183 2.23731 17.0766 
3.99337 2.23969 17.0802 
4.01496 2.24208 17.0839 
4.0366 2.24446 17.0875 
4.05828 2.24686 17.0912 
4.08001 2.24926 17.0949 
3.95033 2.24237 17.0729 
3.97183 2.24475 17.0766 
3.99337 2.24713 17.0802 
4.01496 2.24953 17.0839 
4.0366 2.25192 17.0875 
4.05828 2.25432 17.0912 
4.08001 2.25673 17.0949 
3.95033 2.24979 17.0729 
3.97183 2.25218 17.0766 
3.99337 2.25457 17.0802 
4.01496 2.25697 17.0839 
4.0366 2.25938 17.0875 
4.05828 2.26179 17.0912 
4.08001 2.2642 17.0949 
3.95033 2.25722 17.0729 
3.97183 2.25961 17.0766 
3.99337 2.26202 17.0802 
4.01496 2.26442 17.0839 
4.0366 2.26683 17.0875 
4.05828 2.26925 17.0912 
4.08001 2.27167 17.0949 
3.95033 2.26464 17.0729 
3.97183 2.26705 17.0766 
3.99337 2.26946 17.0802 
4.01496 2.27187 17.0839 
4.0366 2.27429 17.0875 
4.05828 2.27672 17.0912 
4.08001 2.27915 17.0949 
3.95033 2.27207 17.0729 
3.97183 2.27448 17.0766 
3.99337 2.2769 17.0802 
4.01496 2.27932 17.0839 
4.0366 2.28175 17.0875 
4.05828 2.28418 17.0912 
4.08001 2.28662 17.0949 
3.95033 2.27949 17.0729 
3.97183 2.28191 17.0766 
3.99337 2.28434 17.0802 
4.01496 2.28677 17.0839 
4.0366 2.2892 17.0875 
4.05828 2.29165 17.0912 
4.08001 2.29409 17.0949 
3.95033 2.28692 17.0729 
3.97183 2.28935 17.0766 
3.99337 2.29178 17.0802 
4.01496 2.29422 17.0839 
4.0366 2.29666 17.0875 
4.05828 2.29911 17.0912 
4.08001 2.30156 17.0949 
3.95033 2.29434 17.0729 
3.97183 2.29678 17.0766 
3.99337 2.29922 17.0802 
4.01496 2.30167 17.0839 
4.0366 2.30412 17.0875 
4.05828 2.30658 17.0912 
4.08001 2.30904 17.0949 
3.95033 2.30177 17.0729 
3.97183 2.30421 17.0766 
3.99337 2.30666 17.0802 
4.01496 2.30912 17.0839 
4.0366 2.31157 17.0875 
4.05828 2.31404 17.0912 
3.95033 2.30919 17.0729 
3.97183 2.31164 17.0766 
3.99337 2.3141 17.0802 
4.01496 2.31656 17.0839 
4.0366 2.31903 17.0875 
4.05828 2.3215 17.0912 
3.95033 2.31662 17.0729 
3.97183 2.31908 17.0766 
3.99337 2.32154 17.0802 
4.01496 2.32401 17.0839 
4.0366 2.32649 17.0875 
4.05828 2.32897 17.0912 
3.95033 2.32404 17.0729 
3.97183 2.32651 17.0766 
3.99337 2.32898 17.0802 
4.01496 2.33146 17.0839 
3.95033 2.33147 17.0729 
3.97183 2.33394 17.0766 
3.99337 2.33642 17.0802 
3.92888 2.33641 17.0693 
3.95033 2.33889 17.0729 
3.97183 2.34138 17.0766 
3.99337 2.34386 17.0802 
3.90747 2.34135 17.0657 
3.92888 2.34383 17.0693 
3.95033 2.34632 17.0729 
3.97183 2.34881 17.0766 
3.90747 2.34876 17.0657 
3.92888 2.35125 17.0693 
3.95033 2.35374 17.0729 
3.88611 2.35368 17.0621 
3.90747 2.35617 17.0657 
3.92888 2.35867 17.0693 
3.88611 2.36108 17.0621 
3.90747 2.36358 17.0657 
4.04592 0.648732 17.0577 
4.06769 0.656889 17.0608 
4.06769 0.664353 17.0608 
4.0895 0.665063 17.0639 
4.0895 0.672535 17.0639 
4.11136 0.673254 17.0671 
4.0895 0.680008 17.0639 
4.11136 0.680735 17.0671 
4.0895 0.68748 17.0639 
4.11136 0.688215 17.0671 
4.0895 0.694953 17.0639 
4.11136 0.695696 17.0671 
4.13327 0.69644 17.0702 
4.0895 0.702426 17.0639 
4.11136 0.703176 17.0671 
4.13327 0.703929 17.0702 
4.0895 0.709898 17.0639 
4.11136 0.710657 17.0671 
4.13327 0.711417 17.0702 
4.15522 0.712179 17.0734 
4.0895 0.717371 17.0639 
4.11136 0.718138 17.0671 
4.13327 0.718906 17.0702 
4.15522 0.719676 17.0734 
4.17722 0.720447 17.0765 
4.0895 0.724844 17.0639 
4.11136 0.725618 17.0671 
4.13327 0.726394 17.0702 
4.15522 0.727172 17.0734 
4.17722 0.727952 17.0765 
4.0895 0.732316 17.0639 
4.11136 0.733099 17.0671 
4.13327 0.733883 17.0702 
4.15522 0.734669 17.0734 
4.17722 0.735457 17.0765 
4.19927 0.736246 17.0797 
4.0895 0.739789 17.0639 
4.11136 0.740579 17.0671 
4.13327 0.741372 17.0702 
4.15522 0.742166 17.0734 
4.17722 0.742961 17.0765 
4.19927 0.743759 17.0797 
4.0895 0.747261 17.0639 
4.11136 0.74806 17.0671 
4.13327 0.74886 17.0702 
4.15522 0.749662 17.0734 
4.17722 0.750466 17.0765 
4.19927 0.751271 17.0797 
4.0895 0.754734 17.0639 
4.11136 0.755541 17.0671 
4.13327 0.756349 17.0702 
4.15522 0.757159 17.0734 
4.17722 0.757971 17.0765 
4.19927 0.758784 17.0797 
4.0895 0.762207 17.0639 
4.11136 0.763021 17.0671 
4.13327 0.763837 17.0702 
4.15522 0.764655 17.0734 
4.17722 0.765475 17.0765 
4.0895 0.769679 17.0639 
4.11136 0.770502 17.0671 
4.13327 0.771326 17.0702 
4.15522 0.772152 17.0734 
4.17722 0.77298 17.0765 
4.04592 0.775496 17.0577 
4.11136 0.777982 17.0671 
4.13327 0.778815 17.0702 
4.15522 0.779649 17.0734 
4.04592 0.782953 17.0577 
4.0242 0.789568 17.0546 
4.04592 0.79041 17.0577 
4.0242 0.797017 17.0546 
4.0242 0.804466 17.0546 
4.00252 0.811052 17.0515 
4.0242 0.811915 17.0546 
4.00252 0.818492 17.0515 
4.00252 0.825933 17.0515 
3.98089 0.832489 17.0484 
3.98089 0.839922 17.0484 
3.93777 0.986486 17.0422 
3.93777 0.993903 17.0422 
3.95931 0.994957 17.0453 
3.93777 1.00132 17.0422 
3.95931 1.00238 17.0453 
3.91628 1.00767 17.0391 
3.93777 1.00874 17.0422 
3.95931 1.00981 17.0453 
3.93777 1.01615 17.0422 
3.95931 1.01723 17.0453 
3.93777 1.02357 17.0422 
3.93777 1.03099 17.0422 
3.66188 1.09746 17.0026 
3.68284 1.09861 17.0056 
3.59927 1.10132 16.9936 
3.6201 1.10247 16.9966 
3.66188 1.10478 17.0026 
3.68284 1.10593 17.0056 
3.57849 1.10746 16.9907 
3.59927 1.10862 16.9936 
3.6201 1.10977 16.9966 
3.64097 1.11093 16.9996 
3.66188 1.11209 17.0026 
3.68284 1.11326 17.0056 
3.70384 1.11442 17.0086 
3.59927 1.11591 16.9936 
3.6201 1.11707 16.9966 
3.64097 1.11824 16.9996 
3.66188 1.11941 17.0026 
3.68284 1.12058 17.0056 
3.70384 1.12176 17.0086 
3.57849 1.12204 16.9907 
3.59927 1.1232 16.9936 
3.6201 1.12438 16.9966 
3.64097 1.12555 16.9996 
3.66188 1.12673 17.0026 
3.68284 1.12791 17.0056 
3.70384 1.12909 17.0086 
3.57849 1.12932 16.9907 
3.59927 1.1305 16.9936 
3.6201 1.13168 16.9966 
3.64097 1.13286 16.9996 
3.66188 1.13404 17.0026 
3.68284 1.13523 17.0056 
3.70384 1.13642 17.0086 
3.72488 1.13761 17.0117 
3.59927 1.13779 16.9936 
3.6201 1.13898 16.9966 
3.64097 1.14017 16.9996 
3.66188 1.14136 17.0026 
3.68284 1.14255 17.0056 
3.70384 1.14375 17.0086 
3.72488 1.14495 17.0117 
3.6201 1.14628 16.9966 
3.64097 1.14748 16.9996 
3.66188 1.14868 17.0026 
3.68284 1.14988 17.0056 
3.70384 1.15108 17.0086 
3.72488 1.15229 17.0117 
3.6201 1.15358 16.9966 
3.64097 1.15479 16.9996 
3.66188 1.15599 17.0026 
3.68284 1.1572 17.0056 
3.70384 1.15841 17.0086 
3.72488 1.15963 17.0117 
3.6201 1.16088 16.9966 
3.64097 1.16209 16.9996 
3.66188 1.16331 17.0026 
3.68284 1.16453 17.0056 
3.70384 1.16575 17.0086 
3.72488 1.16697 17.0117 
3.64097 1.1694 16.9996 
3.66188 1.17062 17.0026 
3.68284 1.17185 17.0056 
3.72488 1.17431 17.0117 
3.64097 1.17671 16.9996 
3.66188 1.17794 17.0026 
3.68284 1.17917 17.0056 
3.70384 1.18041 17.0086 
3.72488 1.18165 17.0117 
3.64097 1.18402 16.9996 
3.66188 1.18526 17.0026 
3.68284 1.1865 17.0056 
3.70384 1.18774 17.0086 
3.64097 1.19133 16.9996 
3.66188 1.19257 17.0026 
3.68284 1.19382 17.0056 
3.70384 1.19507 17.0086 
3.64097 1.19864 16.9996 
3.66188 1.19989 17.0026 
3.68284 1.20115 17.0056 
3.70384 1.2024 17.0086 
3.64097 1.20595 16.9996 
3.66188 1.20721 17.0026 
3.68284 1.20847 17.0056 
3.70384 1.20974 17.0086 
3.64097 1.21326 16.9996 
3.66188 1.21452 17.0026 
3.68284 1.21579 17.0056 
3.70384 1.21707 17.0086 
3.66188 1.22184 17.0026 
3.68284 1.22312 17.0056 
3.70384 1.2244 17.0086 
3.66188 1.22916 17.0026 
3.68284 1.23044 17.0056 
3.66188 1.23647 17.0026 
3.68284 1.23777 17.0056 
3.66188 1.24379 17.0026 
3.68284 1.24509 17.0056 
3.66188 1.25111 17.0026 
3.68284 1.25241 17.0056 
3.66188 1.25842 17.0026 
3.68284 1.25974 17.0056 
3.66188 1.26574 17.0026 
3.68284 1.26706 17.0056 
3.66188 1.27305 17.0026 
3.68284 1.27439 17.0056 
3.70384 1.27572 17.0086 
3.66188 1.28037 17.0026 
3.68284 1.28171 17.0056 
3.70384 1.28305 17.0086 
3.66188 1.28769 17.0026 
3.68284 1.28903 17.0056 
3.70384 1.29038 17.0086 
3.66188 1.295 17.0026 
3.68284 1.29636 17.0056 
3.70384 1.29772 17.0086 
3.66188 1.30232 17.0026 
3.68284 1.30368 17.0056 
3.70384 1.30505 17.0086 
3.66188 1.30964 17.0026 
3.68284 1.31101 17.0056 
3.70384 1.31238 17.0086 
3.66188 1.31695 17.0026 
3.68284 1.31833 17.0056 
3.70384 1.31971 17.0086 
3.66188 1.32427 17.0026 
3.68284 1.32566 17.0056 
3.70384 1.32704 17.0086 
3.66188 1.33159 17.0026 
3.68284 1.33298 17.0056 
3.70384 1.33438 17.0086 
3.66188 1.3389 17.0026 
3.68284 1.3403 17.0056 
3.70384 1.34171 17.0086 
3.66188 1.34622 17.0026 
3.68284 1.34763 17.0056 
3.70384 1.34904 17.0086 
3.66188 1.35354 17.0026 
3.68284 1.35495 17.0056 
3.70384 1.35637 17.0086 
3.66188 1.36085 17.0026 
3.68284 1.36228 17.0056 
3.70384 1.3637 17.0086 
3.66188 1.36817 17.0026 
3.68284 1.3696 17.0056 
3.70384 1.37103 17.0086 
3.66188 1.37548 17.0026 
3.68284 1.37692 17.0056 
3.70384 1.37837 17.0086 
3.66188 1.3828 17.0026 
3.68284 1.38425 17.0056 
3.70384 1.3857 17.0086 
3.66188 1.39012 17.0026 
3.68284 1.39157 17.0056 
3.66188 1.39743 17.0026 
3.68284 1.3989 17.0056 
3.66188 1.40475 17.0026 
3.68284 1.40622 17.0056 
3.70384 1.40769 17.0086 
3.66188 1.41207 17.0026 
3.68284 1.41354 17.0056 
3.70384 1.41502 17.0086 
3.66188 1.41938 17.0026 
3.68284 1.42087 17.0056 
3.66188 1.4267 17.0026 
3.68284 1.42819 17.0056 
3.64097 1.43252 16.9996 
3.66188 1.43402 17.0026 
3.68284 1.43552 17.0056 
3.64097 1.43983 16.9996 
3.66188 1.44133 17.0026 
3.68284 1.44284 17.0056 
3.64097 1.44714 16.9996 
3.66188 1.44865 17.0026 
3.68284 1.45016 17.0056 
3.64097 1.45444 16.9996 
3.66188 1.45596 17.0026 
3.68284 1.45749 17.0056 
3.64097 1.46175 16.9996 
3.66188 1.46328 17.0026 
3.68284 1.46481 17.0056 
3.64097 1.46906 16.9996 
3.66188 1.4706 17.0026 
3.68284 1.47214 17.0056 
3.6201 1.47483 16.9966 
3.64097 1.47637 16.9996 
3.66188 1.47791 17.0026 
3.68284 1.47946 17.0056 
3.6201 1.48213 16.9966 
3.64097 1.48368 16.9996 
3.66188 1.48523 17.0026 
3.68284 1.48678 17.0056 
3.6201 1.48943 16.9966 
3.64097 1.49099 16.9996 
3.66188 1.49255 17.0026 
3.6201 1.49673 16.9966 
3.64097 1.4983 16.9996 
3.66188 1.49986 17.0026 
3.59927 1.50247 16.9936 
3.6201 1.50404 16.9966 
3.64097 1.50561 16.9996 
3.66188 1.50718 17.0026 
3.59927 1.50976 16.9936 
3.6201 1.51134 16.9966 
3.64097 1.51291 16.9996 
3.59927 1.51706 16.9936 
3.6201 1.51864 16.9966 
3.64097 1.52022 16.9996 
3.66188 1.52181 17.0026 
3.59927 1.52435 16.9936 
3.6201 1.52594 16.9966 
3.64097 1.52753 16.9996 
3.59927 1.53164 16.9936 
3.6201 1.53324 16.9966 
3.64097 1.53484 16.9996 
3.59927 1.53894 16.9936 
3.6201 1.54054 16.9966 
3.64097 1.54215 16.9996 
3.59927 1.54623 16.9936 
3.6201 1.54784 16.9966 
3.64097 1.54946 16.9996 
3.57849 1.55191 16.9907 
3.59927 1.55352 16.9936 
3.6201 1.55514 16.9966 
3.57849 1.55919 16.9907 
3.59927 1.56082 16.9936 
3.6201 1.56244 16.9966 
3.57849 1.56648 16.9907 
3.59927 1.56811 16.9936 
3.6201 1.56975 16.9966 
3.55775 1.57213 16.9877 
3.57849 1.57376 16.9907 
3.59927 1.5754 16.9936 
3.6201 1.57705 16.9966 
3.55775 1.57941 16.9877 
3.57849 1.58105 16.9907 
3.59927 1.5827 16.9936 
3.6201 1.58435 16.9966 
3.55775 1.58668 16.9877 
3.57849 1.58834 16.9907 
3.59927 1.58999 16.9936 
3.55775 1.59396 16.9877 
3.57849 1.59562 16.9907 
3.59927 1.59728 16.9936 
3.53706 1.59958 16.9847 
3.55775 1.60124 16.9877 
3.57849 1.60291 16.9907 
3.59927 1.60458 16.9936 
3.53706 1.60685 16.9847 
3.55775 1.60852 16.9877 
3.57849 1.61019 16.9907 
3.59927 1.61187 16.9936 
3.53706 1.61412 16.9847 
3.55775 1.6158 16.9877 
3.57849 1.61748 16.9907 
3.53706 1.62139 16.9847 
3.55775 1.62308 16.9877 
3.57849 1.62477 16.9907 
3.51641 1.62697 16.9818 
3.53706 1.62866 16.9847 
3.55775 1.63035 16.9877 
3.57849 1.63205 16.9907 
3.51641 1.63423 16.9818 
3.53706 1.63593 16.9847 
3.55775 1.63763 16.9877 
3.51641 1.6415 16.9818 
3.53706 1.6432 16.9847 
3.55775 1.64491 16.9877 
3.4958 1.64705 16.9788 
3.51641 1.64876 16.9818 
3.53706 1.65047 16.9847 
3.55775 1.65219 16.9877 
3.4958 1.65431 16.9788 
3.51641 1.65602 16.9818 
3.53706 1.65774 16.9847 
3.55775 1.65947 16.9877 
3.4958 1.66156 16.9788 
3.51641 1.66329 16.9818 
3.53706 1.66502 16.9847 
3.55775 1.66675 16.9877 
3.47523 1.66709 16.9759 
3.4958 1.66882 16.9788 
3.51641 1.67055 16.9818 
3.53706 1.67229 16.9847 
3.55775 1.67402 16.9877 
3.47523 1.67434 16.9759 
3.4958 1.67608 16.9788 
3.51641 1.67781 16.9818 
3.53706 1.67956 16.9847 
3.55775 1.6813 16.9877 
3.4547 1.67985 16.9729 
3.47523 1.68159 16.9759 
3.4958 1.68333 16.9788 
3.51641 1.68508 16.9818 
3.53706 1.68683 16.9847 
3.55775 1.68858 16.9877 
3.4547 1.68709 16.9729 
3.47523 1.68884 16.9759 
3.4958 1.69059 16.9788 
3.51641 1.69234 16.9818 
3.53706 1.6941 16.9847 
3.4547 1.69433 16.9729 
3.47523 1.69608 16.9759 
3.4958 1.69784 16.9788 
3.51641 1.6996 16.9818 
3.4547 1.70157 16.9729 
3.47523 1.70333 16.9759 
3.4958 1.7051 16.9788 
3.51641 1.70687 16.9818 
3.4547 1.70881 16.9729 
3.47523 1.71058 16.9759 
3.4958 1.71235 16.9788 
3.51641 1.71413 16.9818 
3.4547 1.71605 16.9729 
3.47523 1.71783 16.9759 
3.4958 1.71961 16.9788 
3.51641 1.72139 16.9818 
3.43422 1.72151 16.97 
3.4547 1.72329 16.9729 
3.47523 1.72508 16.9759 
3.4958 1.72687 16.9788 
3.51641 1.72866 16.9818 
3.43422 1.72875 16.97 
3.4547 1.73053 16.9729 
3.47523 1.73233 16.9759 
3.4958 1.73412 16.9788 
3.51641 1.73592 16.9818 
3.43422 1.73598 16.97 
3.4547 1.73777 16.9729 
3.47523 1.73957 16.9759 
3.4958 1.74138 16.9788 
3.43422 1.74321 16.97 
3.4547 1.74501 16.9729 
3.47523 1.74682 16.9759 
3.4958 1.74863 16.9788 
3.43422 1.75045 16.97 
3.4547 1.75226 16.9729 
3.47523 1.75407 16.9759 
3.4958 1.75589 16.9788 
3.41378 1.75586 16.967 
3.43422 1.75768 16.97 
3.4547 1.7595 16.9729 
3.47523 1.76132 16.9759 
3.41378 1.76309 16.967 
3.43422 1.76491 16.97 
3.4547 1.76674 16.9729 
3.47523 1.76857 16.9759 
3.41378 1.77032 16.967 
3.43422 1.77214 16.97 
3.4547 1.77398 16.9729 
3.47523 1.77581 16.9759 
3.41378 1.77754 16.967 
3.43422 1.77938 16.97 
3.4547 1.78122 16.9729 
3.47523 1.78306 16.9759 
3.41378 1.78477 16.967 
3.43422 1.78661 16.97 
3.4547 1.78846 16.9729 
3.47523 1.79031 16.9759 
3.41378 1.79199 16.967 
3.43422 1.79384 16.97 
3.4547 1.7957 16.9729 
3.47523 1.79756 16.9759 
3.41378 1.79922 16.967 
3.43422 1.80108 16.97 
3.4547 1.80294 16.9729 
3.41378 1.80644 16.967 
3.43422 1.80831 16.97 
3.4547 1.81018 16.9729 
3.39339 1.8118 16.9641 
3.41378 1.81367 16.967 
3.43422 1.81554 16.97 
3.4547 1.81742 16.9729 
3.39339 1.81902 16.9641 
3.41378 1.8209 16.967 
3.43422 1.82278 16.97 
3.4547 1.82466 16.9729 
3.39339 1.82624 16.9641 
3.41378 1.82812 16.967 
3.43422 1.83001 16.97 
3.4547 1.8319 16.9729 
3.39339 1.83345 16.9641 
3.41378 1.83535 16.967 
3.43422 1.83724 16.97 
3.37303 1.83878 16.9612 
3.39339 1.84067 16.9641 
3.41378 1.84257 16.967 
3.43422 1.84448 16.97 
3.37303 1.84599 16.9612 
3.39339 1.84789 16.9641 
3.41378 1.8498 16.967 
3.43422 1.85171 16.97 
3.37303 1.8532 16.9612 
3.39339 1.85511 16.9641 
3.41378 1.85702 16.967 
3.37303 1.86041 16.9612 
3.39339 1.86233 16.9641 
3.41378 1.86425 16.967 
3.37303 1.86762 16.9612 
3.39339 1.86955 16.9641 
3.41378 1.87148 16.967 
3.37303 1.87483 16.9612 
3.39339 1.87676 16.9641 
3.41378 1.8787 16.967 
3.37303 1.88204 16.9612 
3.39339 1.88398 16.9641 
3.37303 1.88925 16.9612 
3.39339 1.8912 16.9641 
3.37303 1.89646 16.9612 
3.39339 1.89842 16.9641 
3.35272 1.90172 16.9583 
3.37303 1.90368 16.9612 
3.39339 1.90564 16.9641 
3.35272 1.90892 16.9583 
3.37303 1.91089 16.9612 
3.39339 1.91286 16.9641 
3.35272 1.91612 16.9583 
3.37303 1.9181 16.9612 
3.35272 1.92333 16.9583 
3.37303 1.92531 16.9612 
3.35272 1.93053 16.9583 
3.37303 1.93252 16.9612 
3.35272 1.93773 16.9583 
3.37303 1.93973 16.9612 
3.35272 1.94494 16.9583 
3.35272 1.95214 16.9583 
3.35272 1.95934 16.9583 
3.35272 1.96655 16.9583 
3.35272 1.97375 16.9583 
3.35272 1.98095 16.9583 
3.37303 1.98299 16.9612 
3.35272 1.98816 16.9583 
3.37303 1.99021 16.9612 
3.39339 1.99226 16.9641 
3.37303 1.99742 16.9612 
3.39339 1.99948 16.9641 
3.41378 2.00154 16.967 
3.39339 2.00669 16.9641 
3.41378 2.00877 16.967 
3.43422 2.01084 16.97 
3.4547 2.01292 16.9729 
3.41378 2.01599 16.967 
3.43422 2.01807 16.97 
3.4547 2.02016 16.9729 
3.47523 2.02225 16.9759 
3.4958 2.02435 16.9788 
3.4547 2.0274 16.9729 
3.47523 2.0295 16.9759 
3.4958 2.03161 16.9788 
3.51641 2.03371 16.9818 
3.53706 2.03583 16.9847 
3.55775 2.03794 16.9877 
3.4547 2.03464 16.9729 
3.47523 2.03675 16.9759 
3.4958 2.03886 16.9788 
3.51641 2.04098 16.9818 
3.53706 2.0431 16.9847 
3.55775 2.04522 16.9877 
3.57849 2.04735 16.9907 
3.59927 2.04948 16.9936 
3.6201 2.05162 16.9966 
3.64097 2.05376 16.9996 
3.51641 2.04824 16.9818 
3.53706 2.05037 16.9847 
3.55775 2.0525 16.9877 
3.57849 2.05464 16.9907 
3.59927 2.05678 16.9936 
3.6201 2.05892 16.9966 
3.64097 2.06107 16.9996 
3.66188 2.06323 17.0026 
3.68284 2.06539 17.0056 
3.70384 2.06755 17.0086 
3.72488 2.06972 17.0117 
3.74597 2.07189 17.0147 
3.6201 2.06622 16.9966 
3.64097 2.06838 16.9996 
3.66188 2.07054 17.0026 
3.68284 2.07271 17.0056 
3.70384 2.07488 17.0086 
3.72488 2.07706 17.0117 
3.74597 2.07924 17.0147 
3.7671 2.08142 17.0177 
3.78828 2.08361 17.0207 
3.70384 2.08221 17.0086 
3.72488 2.0844 17.0117 
3.74597 2.08658 17.0147 
3.7671 2.08878 17.0177 
3.78828 2.09097 17.0207 
3.8095 2.09317 17.0238 
3.83076 2.09538 17.0268 
3.74597 2.09393 17.0147 
3.7671 2.09613 17.0177 
3.78828 2.09833 17.0207 
3.8095 2.10054 17.0238 
3.83076 2.10276 17.0268 
3.85208 2.10498 17.0299 
3.87343 2.1072 17.033 
3.85208 2.11236 17.0299 
3.87343 2.11459 17.033 
3.89483 2.11683 17.036 
3.87343 2.12199 17.033 
3.89483 2.12423 17.036 
3.91628 2.12648 17.0391 
3.93777 2.12873 17.0422 
3.83076 2.12489 17.0268 
3.85208 2.12713 17.0299 
3.87343 2.12938 17.033 
3.89483 2.13163 17.036 
3.91628 2.13389 17.0391 
3.93777 2.13615 17.0422 
3.95931 2.13842 17.0453 
3.98089 2.14069 17.0484 
3.85208 2.13452 17.0299 
3.87343 2.13678 17.033 
3.89483 2.13903 17.036 
3.91628 2.1413 17.0391 
3.93777 2.14357 17.0422 
3.95931 2.14584 17.0453 
3.98089 2.14812 17.0484 
3.87343 2.14417 17.033 
3.89483 2.14644 17.036 
3.91628 2.14871 17.0391 
3.93777 2.15098 17.0422 
3.95931 2.15327 17.0453 
3.98089 2.15555 17.0484 
4.00252 2.15784 17.0515 
3.87343 2.15156 17.033 
3.89483 2.15384 17.036 
3.91628 2.15612 17.0391 
3.93777 2.1584 17.0422 
3.95931 2.16069 17.0453 
3.98089 2.16299 17.0484 
4.00252 2.16528 17.0515 
4.0242 2.16759 17.0546 
3.91628 2.16353 17.0391 
3.93777 2.16582 17.0422 
3.95931 2.16812 17.0453 
3.98089 2.17042 17.0484 
4.00252 2.17273 17.0515 
4.0242 2.17504 17.0546 
4.04592 2.17735 17.0577 
3.91628 2.17094 17.0391 
3.93777 2.17324 17.0422 
3.95931 2.17554 17.0453 
3.98089 2.17785 17.0484 
4.00252 2.18017 17.0515 
4.0242 2.18249 17.0546 
4.04592 2.18481 17.0577 
3.91628 2.17834 17.0391 
3.93777 2.18065 17.0422 
3.95931 2.18297 17.0453 
3.98089 2.18528 17.0484 
4.00252 2.18761 17.0515 
4.0242 2.18993 17.0546 
4.04592 2.19227 17.0577 
4.06769 2.19461 17.0608 
3.91628 2.18575 17.0391 
3.93777 2.18807 17.0422 
3.95931 2.19039 17.0453 
3.98089 2.19272 17.0484 
4.00252 2.19505 17.0515 
4.0242 2.19738 17.0546 
4.04592 2.19972 17.0577 
4.06769 2.20207 17.0608 
3.95931 2.19782 17.0453 
3.98089 2.20015 17.0484 
4.00252 2.20249 17.0515 
4.0242 2.20483 17.0546 
4.04592 2.20718 17.0577 
4.06769 2.20953 17.0608 
3.95931 2.20524 17.0453 
3.98089 2.20758 17.0484 
4.00252 2.20993 17.0515 
4.0242 2.21228 17.0546 
4.04592 2.21464 17.0577 
4.06769 2.217 17.0608 
4.0895 2.21937 17.0639 
3.95931 2.21267 17.0453 
3.98089 2.21502 17.0484 
4.00252 2.21737 17.0515 
4.0242 2.21973 17.0546 
4.04592 2.22209 17.0577 
4.06769 2.22446 17.0608 
4.0895 2.22684 17.0639 
3.95931 2.22009 17.0453 
3.98089 2.22245 17.0484 
4.00252 2.22481 17.0515 
4.0242 2.22718 17.0546 
4.04592 2.22955 17.0577 
4.06769 2.23193 17.0608 
4.0895 2.23431 17.0639 
4.00252 2.23225 17.0515 
4.0242 2.23463 17.0546 
4.04592 2.23701 17.0577 
4.06769 2.23939 17.0608 
4.0895 2.24178 17.0639 
4.00252 2.23969 17.0515 
4.0242 2.24208 17.0546 
4.04592 2.24446 17.0577 
4.06769 2.24686 17.0608 
4.0895 2.24926 17.0639 
4.11136 2.25166 17.0671 
4.00252 2.24713 17.0515 
4.0242 2.24953 17.0546 
4.04592 2.25192 17.0577 
4.06769 2.25432 17.0608 
4.0895 2.25673 17.0639 
4.11136 2.25914 17.0671 
4.00252 2.25457 17.0515 
4.0242 2.25697 17.0546 
4.04592 2.25938 17.0577 
4.06769 2.26179 17.0608 
4.0895 2.2642 17.0639 
4.11136 2.26662 17.0671 
4.0242 2.26442 17.0546 
4.04592 2.26683 17.0577 
4.06769 2.26925 17.0608 
4.0895 2.27167 17.0639 
4.11136 2.2741 17.0671 
4.0242 2.27187 17.0546 
4.04592 2.27429 17.0577 
4.06769 2.27672 17.0608 
4.0895 2.27915 17.0639 
4.11136 2.28158 17.0671 
4.0242 2.27932 17.0546 
4.04592 2.28175 17.0577 
4.06769 2.28418 17.0608 
4.0895 2.28662 17.0639 
4.0242 2.28677 17.0546 
4.04592 2.2892 17.0577 
4.06769 2.29165 17.0608 
4.0895 2.29409 17.0639 
4.0242 2.29422 17.0546 
4.04592 2.29666 17.0577 
4.06769 2.29911 17.0608 
4.0895 2.30156 17.0639 
4.0242 2.30167 17.0546 
4.04592 2.30412 17.0577 
4.06769 2.30658 17.0608 
4.0895 2.30904 17.0639 
4.0242 2.30912 17.0546 
4.04592 2.31157 17.0577 
4.06769 2.31404 17.0608 
4.0895 2.31651 17.0639 
4.0242 2.31656 17.0546 
4.04592 2.31903 17.0577 
4.06769 2.3215 17.0608 
4.0895 2.32398 17.0639 
4.00252 2.32154 17.0515 
4.0242 2.32401 17.0546 
4.04592 2.32649 17.0577 
4.06769 2.32897 17.0608 
4.00252 2.32898 17.0515 
4.0242 2.33146 17.0546 
4.04592 2.33395 17.0577 
4.06769 2.33643 17.0608 
4.00252 2.33642 17.0515 
4.0242 2.33891 17.0546 
4.04592 2.3414 17.0577 
4.06769 2.3439 17.0608 
4.00252 2.34386 17.0515 
4.0242 2.34636 17.0546 
4.04592 2.34886 17.0577 
4.00252 2.35131 17.0515 
4.0242 2.35381 17.0546 
3.98089 2.35624 17.0484 
4.00252 2.35875 17.0515 
4.0242 2.36126 17.0546 
4.09821 0.65759 17.0328 
4.12014 0.673254 17.0354 
4.12014 0.680735 17.0354 
4.14212 0.681463 17.038 
4.14212 0.688951 17.038 
4.14212 0.69644 17.038 
4.16415 0.697186 17.0405 
4.14212 0.703929 17.038 
4.16415 0.704682 17.0405 
4.18622 0.705438 17.0431 
4.14212 0.711417 17.038 
4.16415 0.712179 17.0405 
4.18622 0.712943 17.0431 
4.14212 0.718906 17.038 
4.16415 0.719676 17.0405 
4.18622 0.720447 17.0431 
4.20834 0.72122 17.0458 
4.16415 0.727172 17.0405 
4.18622 0.727952 17.0431 
4.20834 0.728733 17.0458 
4.14212 0.733883 17.038 
4.16415 0.734669 17.0405 
4.18622 0.735457 17.0431 
4.20834 0.736246 17.0458 
4.23051 0.737037 17.0484 
4.16415 0.742166 17.0405 
4.18622 0.742961 17.0431 
4.20834 0.743759 17.0458 
4.23051 0.744558 17.0484 
4.14212 0.74886 17.038 
4.16415 0.749662 17.0405 
4.18622 0.750466 17.0431 
4.20834 0.751271 17.0458 
4.23051 0.752079 17.0484 
4.14212 0.756349 17.038 
4.16415 0.757159 17.0405 
4.18622 0.757971 17.0431 
4.20834 0.758784 17.0458 
4.23051 0.759599 17.0484 
4.14212 0.763837 17.038 
4.16415 0.764655 17.0405 
4.18622 0.765475 17.0431 
4.20834 0.766297 17.0458 
4.23051 0.76712 17.0484 
4.25273 0.767945 17.051 
4.14212 0.771326 17.038 
4.16415 0.772152 17.0405 
4.18622 0.77298 17.0431 
4.20834 0.773809 17.0458 
4.23051 0.774641 17.0484 
4.25273 0.775474 17.051 
4.16415 0.779649 17.0405 
4.18622 0.780485 17.0431 
4.20834 0.781322 17.0458 
4.23051 0.782162 17.0484 
4.25273 0.783003 17.051 
4.16415 0.787145 17.0405 
4.18622 0.787989 17.0431 
4.20834 0.788835 17.0458 
4.23051 0.789682 17.0484 
4.25273 0.790532 17.051 
4.16415 0.794642 17.0405 
4.18622 0.795494 17.0431 
4.20834 0.796348 17.0458 
4.23051 0.797203 17.0484 
4.16415 0.802139 17.0405 
4.18622 0.802999 17.0431 
4.20834 0.80386 17.0458 
4.18622 0.810503 17.0431 
3.98924 1.02575 17.0199 
3.96759 1.03208 17.0174 
3.98924 1.03318 17.0199 
3.96759 1.03951 17.0174 
3.98924 1.04061 17.0199 
3.96759 1.04693 17.0174 
3.98924 1.04804 17.0199 
3.96759 1.05436 17.0174 
3.98924 1.05548 17.0199 
3.96759 1.06178 17.0174 
3.77475 1.09587 16.9947 
3.75355 1.10207 16.9922 
3.77475 1.10323 16.9947 
3.79599 1.10439 16.9972 
3.81728 1.10555 16.9997 
3.83862 1.10671 17.0022 
3.75355 1.10942 16.9922 
3.77475 1.11058 16.9947 
3.79599 1.11175 16.9972 
3.81728 1.11292 16.9997 
3.83862 1.11409 17.0022 
3.71128 1.11442 16.9872 
3.75355 1.11676 16.9922 
3.77475 1.11794 16.9947 
3.79599 1.11911 16.9972 
3.81728 1.12029 16.9997 
3.83862 1.12147 17.0022 
3.86 1.12265 17.0047 
3.71128 1.12176 16.9872 
3.75355 1.12411 16.9922 
3.77475 1.12529 16.9947 
3.79599 1.12647 16.9972 
3.81728 1.12766 16.9997 
3.83862 1.12885 17.0022 
3.86 1.13004 17.0047 
3.75355 1.13146 16.9922 
3.77475 1.13265 16.9947 
3.79599 1.13384 16.9972 
3.81728 1.13503 16.9997 
3.83862 1.13623 17.0022 
3.86 1.13743 17.0047 
3.75355 1.1388 16.9922 
3.77475 1.14 16.9947 
3.79599 1.1412 16.9972 
3.81728 1.1424 16.9997 
3.83862 1.14361 17.0022 
3.86 1.14481 17.0047 
3.75355 1.14615 16.9922 
3.77475 1.14736 16.9947 
3.79599 1.14856 16.9972 
3.81728 1.14977 16.9997 
3.83862 1.15098 17.0022 
3.73239 1.15229 16.9897 
3.75355 1.1535 16.9922 
3.77475 1.15471 16.9947 
3.79599 1.15592 16.9972 
3.81728 1.15714 16.9997 
3.73239 1.15963 16.9897 
3.75355 1.16085 16.9922 
3.77475 1.16207 16.9947 
3.79599 1.16329 16.9972 
3.73239 1.16697 16.9897 
3.75355 1.16819 16.9922 
3.77475 1.16942 16.9947 
3.79599 1.17065 16.9972 
3.73239 1.17431 16.9897 
3.75355 1.17554 16.9922 
3.77475 1.17677 16.9947 
3.73239 1.18165 16.9897 
3.75355 1.18289 16.9922 
3.77475 1.18413 16.9947 
3.73239 1.18899 16.9897 
3.75355 1.19023 16.9922 
3.77475 1.19148 16.9947 
3.71128 1.19507 16.9872 
3.73239 1.19633 16.9897 
3.75355 1.19758 16.9922 
3.71128 1.2024 16.9872 
3.73239 1.20366 16.9897 
3.75355 1.20493 16.9922 
3.69021 1.20847 16.9847 
3.71128 1.20974 16.9872 
3.73239 1.211 16.9897 
3.75355 1.21228 16.9922 
3.69021 1.21579 16.9847 
3.71128 1.21707 16.9872 
3.73239 1.21834 16.9897 
3.75355 1.21962 16.9922 
3.69021 1.22312 16.9847 
3.71128 1.2244 16.9872 
3.73239 1.22568 16.9897 
3.75355 1.22697 16.9922 
3.69021 1.23044 16.9847 
3.71128 1.23173 16.9872 
3.73239 1.23302 16.9897 
3.69021 1.23777 16.9847 
3.71128 1.23906 16.9872 
3.73239 1.24036 16.9897 
3.69021 1.24509 16.9847 
3.71128 1.24639 16.9872 
3.73239 1.2477 16.9897 
3.71128 1.25373 16.9872 
3.73239 1.25504 16.9897 
3.69021 1.25974 16.9847 
3.71128 1.26106 16.9872 
3.73239 1.26238 16.9897 
3.69021 1.26706 16.9847 
3.71128 1.26839 16.9872 
3.73239 1.26972 16.9897 
3.69021 1.27439 16.9847 
3.71128 1.27572 16.9872 
3.73239 1.27706 16.9897 
3.69021 1.28171 16.9847 
3.71128 1.28305 16.9872 
3.73239 1.2844 16.9897 
3.69021 1.28903 16.9847 
3.71128 1.29038 16.9872 
3.73239 1.29174 16.9897 
3.69021 1.29636 16.9847 
3.71128 1.29772 16.9872 
3.73239 1.29908 16.9897 
3.69021 1.30368 16.9847 
3.71128 1.30505 16.9872 
3.73239 1.30642 16.9897 
3.69021 1.31101 16.9847 
3.71128 1.31238 16.9872 
3.73239 1.31376 16.9897 
3.71128 1.31971 16.9872 
3.73239 1.3211 16.9897 
3.71128 1.32704 16.9872 
3.73239 1.32843 16.9897 
3.71128 1.33438 16.9872 
3.73239 1.33577 16.9897 
3.71128 1.34171 16.9872 
3.73239 1.34311 16.9897 
3.71128 1.34904 16.9872 
3.73239 1.35045 16.9897 
3.71128 1.35637 16.9872 
3.73239 1.35779 16.9897 
3.71128 1.3637 16.9872 
3.73239 1.36513 16.9897 
3.71128 1.37103 16.9872 
3.73239 1.37247 16.9897 
3.71128 1.37837 16.9872 
3.73239 1.37981 16.9897 
3.71128 1.3857 16.9872 
3.73239 1.38715 16.9897 
3.71128 1.39303 16.9872 
3.73239 1.39449 16.9897 
3.71128 1.40036 16.9872 
3.73239 1.40183 16.9897 
3.71128 1.40769 16.9872 
3.73239 1.40917 16.9897 
3.71128 1.41502 16.9872 
3.73239 1.41651 16.9897 
3.71128 1.42236 16.9872 
3.73239 1.42385 16.9897 
3.69021 1.42819 16.9847 
3.71128 1.42969 16.9872 
3.73239 1.43119 16.9897 
3.69021 1.43552 16.9847 
3.71128 1.43702 16.9872 
3.73239 1.43853 16.9897 
3.69021 1.44284 16.9847 
3.71128 1.44435 16.9872 
3.73239 1.44587 16.9897 
3.69021 1.45016 16.9847 
3.71128 1.45168 16.9872 
3.73239 1.45321 16.9897 
3.69021 1.45749 16.9847 
3.71128 1.45901 16.9872 
3.73239 1.46054 16.9897 
3.69021 1.46481 16.9847 
3.71128 1.46635 16.9872 
3.73239 1.46788 16.9897 
3.69021 1.47214 16.9847 
3.71128 1.47368 16.9872 
3.73239 1.47522 16.9897 
3.66918 1.47791 16.9822 
3.69021 1.47946 16.9847 
3.71128 1.48101 16.9872 
3.73239 1.48256 16.9897 
3.66918 1.48523 16.9822 
3.69021 1.48678 16.9847 
3.71128 1.48834 16.9872 
3.73239 1.4899 16.9897 
3.66918 1.49255 16.9822 
3.69021 1.49411 16.9847 
3.71128 1.49567 16.9872 
3.73239 1.49724 16.9897 
3.66918 1.49986 16.9822 
3.69021 1.50143 16.9847 
3.71128 1.50301 16.9872 
3.73239 1.50458 16.9897 
3.6482 1.50561 16.9798 
3.66918 1.50718 16.9822 
3.69021 1.50876 16.9847 
3.71128 1.51034 16.9872 
3.73239 1.51192 16.9897 
3.6482 1.51291 16.9798 
3.66918 1.5145 16.9822 
3.69021 1.51608 16.9847 
3.71128 1.51767 16.9872 
3.73239 1.51926 16.9897 
3.62726 1.51864 16.9773 
3.6482 1.52022 16.9798 
3.66918 1.52181 16.9822 
3.69021 1.5234 16.9847 
3.71128 1.525 16.9872 
3.62726 1.52594 16.9773 
3.6482 1.52753 16.9798 
3.66918 1.52913 16.9822 
3.69021 1.53073 16.9847 
3.62726 1.53324 16.9773 
3.6482 1.53484 16.9798 
3.66918 1.53645 16.9822 
3.69021 1.53805 16.9847 
3.62726 1.54054 16.9773 
3.6482 1.54215 16.9798 
3.66918 1.54376 16.9822 
3.69021 1.54538 16.9847 
3.62726 1.54784 16.9773 
3.6482 1.54946 16.9798 
3.66918 1.55108 16.9822 
3.69021 1.5527 16.9847 
3.62726 1.55514 16.9773 
3.6482 1.55677 16.9798 
3.66918 1.55839 16.9822 
3.69021 1.56002 16.9847 
3.62726 1.56244 16.9773 
3.6482 1.56408 16.9798 
3.66918 1.56571 16.9822 
3.69021 1.56735 16.9847 
3.62726 1.56975 16.9773 
3.6482 1.57138 16.9798 
3.66918 1.57303 16.9822 
3.62726 1.57705 16.9773 
3.6482 1.57869 16.9798 
3.66918 1.58034 16.9822 
3.60637 1.5827 16.9748 
3.62726 1.58435 16.9773 
3.6482 1.586 16.9798 
3.60637 1.58999 16.9748 
3.62726 1.59165 16.9773 
3.6482 1.59331 16.9798 
3.60637 1.59728 16.9748 
3.62726 1.59895 16.9773 
3.6482 1.60062 16.9798 
3.60637 1.60458 16.9748 
3.62726 1.60625 16.9773 
3.6482 1.60793 16.9798 
3.60637 1.61187 16.9748 
3.62726 1.61355 16.9773 
3.6482 1.61524 16.9798 
3.58552 1.61748 16.9724 
3.60637 1.61917 16.9748 
3.62726 1.62085 16.9773 
3.6482 1.62255 16.9798 
3.58552 1.62477 16.9724 
3.60637 1.62646 16.9748 
3.62726 1.62815 16.9773 
3.6482 1.62986 16.9798 
3.54395 1.62866 16.9675 
3.56471 1.63035 16.9699 
3.58552 1.63205 16.9724 
3.60637 1.63375 16.9748 
3.62726 1.63546 16.9773 
3.6482 1.63716 16.9798 
3.54395 1.63593 16.9675 
3.56471 1.63763 16.9699 
3.58552 1.63934 16.9724 
3.60637 1.64105 16.9748 
3.54395 1.6432 16.9675 
3.56471 1.64491 16.9699 
3.58552 1.64662 16.9724 
3.60637 1.64834 16.9748 
3.54395 1.65047 16.9675 
3.56471 1.65219 16.9699 
3.58552 1.65391 16.9724 
3.60637 1.65563 16.9748 
3.54395 1.65774 16.9675 
3.56471 1.65947 16.9699 
3.58552 1.6612 16.9724 
3.60637 1.66293 16.9748 
3.54395 1.66502 16.9675 
3.56471 1.66675 16.9699 
3.58552 1.66848 16.9724 
3.60637 1.67022 16.9748 
3.54395 1.67229 16.9675 
3.56471 1.67402 16.9699 
3.58552 1.67577 16.9724 
3.60637 1.67751 16.9748 
3.54395 1.67956 16.9675 
3.56471 1.6813 16.9699 
3.58552 1.68305 16.9724 
3.60637 1.68481 16.9748 
3.54395 1.68683 16.9675 
3.56471 1.68858 16.9699 
3.58552 1.69034 16.9724 
3.52323 1.69234 16.965 
3.54395 1.6941 16.9675 
3.56471 1.69586 16.9699 
3.58552 1.69763 16.9724 
3.52323 1.6996 16.965 
3.54395 1.70137 16.9675 
3.56471 1.70314 16.9699 
3.58552 1.70491 16.9724 
3.52323 1.70687 16.965 
3.54395 1.70864 16.9675 
3.56471 1.71042 16.9699 
3.52323 1.71413 16.965 
3.54395 1.71591 16.9675 
3.56471 1.7177 16.9699 
3.48192 1.71783 16.9602 
3.52323 1.72139 16.965 
3.54395 1.72318 16.9675 
3.56471 1.72497 16.9699 
3.46133 1.72329 16.9577 
3.48192 1.72508 16.9602 
3.50255 1.72687 16.9626 
3.52323 1.72866 16.965 
3.54395 1.73045 16.9675 
3.56471 1.73225 16.9699 
3.46133 1.73053 16.9577 
3.48192 1.73233 16.9602 
3.50255 1.73412 16.9626 
3.52323 1.73592 16.965 
3.54395 1.73772 16.9675 
3.48192 1.73957 16.9602 
3.50255 1.74138 16.9626 
3.52323 1.74318 16.965 
3.54395 1.74499 16.9675 
3.48192 1.74682 16.9602 
3.50255 1.74863 16.9626 
3.52323 1.75045 16.965 
3.54395 1.75227 16.9675 
3.48192 1.75407 16.9602 
3.50255 1.75589 16.9626 
3.52323 1.75771 16.965 
3.48192 1.76132 16.9602 
3.50255 1.76314 16.9626 
3.52323 1.76497 16.965 
3.48192 1.76857 16.9602 
3.50255 1.7704 16.9626 
3.52323 1.77224 16.965 
3.48192 1.77581 16.9602 
3.50255 1.77766 16.9626 
3.52323 1.7795 16.965 
3.48192 1.78306 16.9602 
3.50255 1.78491 16.9626 
3.46133 1.78846 16.9577 
3.48192 1.79031 16.9602 
3.50255 1.79217 16.9626 
3.46133 1.7957 16.9577 
3.48192 1.79756 16.9602 
3.50255 1.79942 16.9626 
3.46133 1.80294 16.9577 
3.48192 1.80481 16.9602 
3.50255 1.80668 16.9626 
3.46133 1.81018 16.9577 
3.48192 1.81206 16.9602 
3.46133 1.81742 16.9577 
3.48192 1.8193 16.9602 
3.44078 1.82278 16.9553 
3.46133 1.82466 16.9577 
3.44078 1.83001 16.9553 
3.46133 1.8319 16.9577 
3.44078 1.83724 16.9553 
3.46133 1.83914 16.9577 
3.44078 1.84448 16.9553 
3.46133 1.84639 16.9577 
3.44078 1.85171 16.9553 
3.42027 1.85702 16.9529 
3.44078 1.85894 16.9553 
3.42027 1.86425 16.9529 
3.44078 1.86618 16.9553 
3.42027 1.87148 16.9529 
3.44078 1.87341 16.9553 
3.3998 1.87676 16.9505 
3.42027 1.8787 16.9529 
3.44078 1.88064 16.9553 
3.3998 1.88398 16.9505 
3.42027 1.88593 16.9529 
3.3998 1.8912 16.9505 
3.42027 1.89315 16.9529 
3.3998 1.89842 16.9505 
3.42027 1.90038 16.9529 
3.37938 1.90368 16.9481 
3.3998 1.90564 16.9505 
3.42027 1.90761 16.9529 
3.37938 1.91089 16.9481 
3.3998 1.91286 16.9505 
3.37938 1.9181 16.9481 
3.3998 1.92007 16.9505 
3.37938 1.92531 16.9481 
3.3998 1.92729 16.9505 
3.359 1.93053 16.9457 
3.37938 1.93252 16.9481 
3.359 1.93773 16.9457 
3.37938 1.93973 16.9481 
3.359 1.94494 16.9457 
3.37938 1.94694 16.9481 
3.359 1.95214 16.9457 
3.37938 1.95415 16.9481 
3.359 1.95934 16.9457 
3.37938 1.96136 16.9481 
3.359 1.96655 16.9457 
3.37938 1.96857 16.9481 
3.359 1.97375 16.9457 
3.37938 1.97578 16.9481 
3.359 1.98095 16.9457 
3.37938 1.98299 16.9481 
3.359 1.98816 16.9457 
3.37938 1.99021 16.9481 
3.3998 1.99226 16.9505 
3.37938 1.99742 16.9481 
3.3998 1.99948 16.9505 
3.42027 2.00154 16.9529 
3.44078 2.00361 16.9553 
3.3998 2.00669 16.9505 
3.42027 2.00877 16.9529 
3.44078 2.01084 16.9553 
3.46133 2.01292 16.9577 
3.48192 2.01501 16.9602 
3.42027 2.01599 16.9529 
3.44078 2.01807 16.9553 
3.46133 2.02016 16.9577 
3.48192 2.02225 16.9602 
3.48192 2.0295 16.9602 
3.50255 2.03161 16.9626 
3.52323 2.03371 16.965 
3.54395 2.03583 16.9675 
3.54395 2.0431 16.9675 
3.56471 2.04522 16.9699 
3.58552 2.04735 16.9724 
3.60637 2.04948 16.9748 
3.56471 2.0525 16.9699 
3.58552 2.05464 16.9724 
3.62726 2.05892 16.9773 
3.6482 2.06107 16.9798 
3.66918 2.06323 16.9822 
3.69021 2.06539 16.9847 
3.71128 2.06755 16.9872 
3.73239 2.06972 16.9897 
3.75355 2.07189 16.9922 
3.77475 2.07407 16.9947 
3.71128 2.07488 16.9872 
3.73239 2.07706 16.9897 
3.75355 2.07924 16.9922 
3.77475 2.08142 16.9947 
3.79599 2.09097 16.9972 
3.81728 2.09317 16.9997 
3.83862 2.10276 17.0022 
3.86 2.10498 17.0047 
3.88143 2.1072 17.0072 
3.88143 2.11459 17.0072 
3.9029 2.11683 17.0098 
3.9029 2.12423 17.0098 
3.92442 2.12648 17.0123 
3.94598 2.12873 17.0148 
3.92442 2.13389 17.0123 
3.94598 2.13615 17.0148 
3.96759 2.13842 17.0174 
3.94598 2.14357 17.0148 
3.96759 2.14584 17.0174 
3.98924 2.14812 17.0199 
3.96759 2.15327 17.0174 
3.98924 2.15555 17.0199 
4.01094 2.15784 17.0225 
3.98924 2.16299 17.0199 
4.01094 2.16528 17.0225 
4.01094 2.17273 17.0225 
4.03269 2.17504 17.0251 
4.01094 2.18017 17.0225 
4.03269 2.18249 17.0251 
4.05448 2.18481 17.0276 
4.03269 2.18993 17.0251 
4.05448 2.19227 17.0276 
4.03269 2.19738 17.0251 
4.05448 2.19972 17.0276 
4.07632 2.20207 17.0302 
4.03269 2.20483 17.0251 
4.05448 2.20718 17.0276 
4.07632 2.20953 17.0302 
4.09821 2.21189 17.0328 
4.03269 2.21228 17.0251 
4.05448 2.21464 17.0276 
4.07632 2.217 17.0302 
4.09821 2.21937 17.0328 
4.03269 2.21973 17.0251 
4.05448 2.22209 17.0276 
4.07632 2.22446 17.0302 
4.09821 2.22684 17.0328 
4.07632 2.23193 17.0302 
4.09821 2.23431 17.0328 
4.07632 2.23939 17.0302 
4.09821 2.24178 17.0328 
4.07632 2.24686 17.0302 
4.09821 2.24926 17.0328 
4.12014 2.25166 17.0354 
4.07632 2.25432 17.0302 
4.09821 2.25673 17.0328 
4.12014 2.25914 17.0354 
4.07632 2.26179 17.0302 
4.09821 2.2642 17.0328 
4.12014 2.26662 17.0354 
4.07632 2.26925 17.0302 
4.09821 2.27167 17.0328 
4.12014 2.2741 17.0354 
4.07632 2.27672 17.0302 
4.09821 2.27915 17.0328 
4.07632 2.28418 17.0302 
4.09821 2.28662 17.0328 
4.07632 2.29165 17.0302 
4.09821 2.29409 17.0328 
4.07632 2.29911 17.0302 
4.09821 2.30156 17.0328 
4.07632 2.30658 17.0302 
4.09821 2.30904 17.0328 
4.07632 2.31404 17.0302 
4.09821 2.31651 17.0328 
4.09821 2.32398 17.0328 
4.07632 2.32897 17.0302 
4.09821 2.33146 17.0328 
4.07632 2.33643 17.0302 
4.07632 2.3439 17.0302 
4.05448 2.34886 17.0276 
4.05448 2.35632 17.0276 
4.03269 2.36126 17.0251 
4.05448 2.36377 17.0276 
4.17224 0.697186 17.0075 
4.19437 0.705438 17.0096 
4.19437 0.712943 17.0096 
4.21655 0.713708 17.0116 
4.21655 0.72122 17.0116 
4.23878 0.721995 17.0137 
4.21655 0.728733 17.0116 
4.23878 0.729516 17.0137 
4.21655 0.736246 17.0116 
4.23878 0.737037 17.0137 
4.21655 0.743759 17.0116 
4.23878 0.744558 17.0137 
4.23878 0.752079 17.0137 
4.26106 0.752887 17.0157 
4.23878 0.759599 17.0137 
4.26106 0.760416 17.0157 
4.23878 0.76712 17.0137 
4.26106 0.767945 17.0157 
4.23878 0.774641 17.0137 
4.26106 0.775474 17.0157 
4.28338 0.776309 17.0178 
4.23878 0.782162 17.0137 
4.26106 0.783003 17.0157 
4.28338 0.783846 17.0178 
4.23878 0.789682 17.0137 
4.26106 0.790532 17.0157 
4.28338 0.791383 17.0178 
4.23878 0.797203 17.0137 
4.26106 0.798061 17.0157 
4.28338 0.79892 17.0178 
4.23878 0.804724 17.0137 
4.26106 0.805589 17.0157 
4.28338 0.806457 17.0178 
4.21655 0.811373 17.0116 
4.23878 0.812245 17.0137 
4.26106 0.813118 17.0157 
4.28338 0.813994 17.0178 
4.19437 0.818008 17.0096 
4.21655 0.818886 17.0116 
4.23878 0.819766 17.0137 
4.26106 0.820647 17.0157 
4.28338 0.821531 17.0178 
4.19437 0.825512 17.0096 
4.21655 0.826398 17.0116 
4.23878 0.827286 17.0137 
4.26106 0.828176 17.0157 
4.28338 0.829068 17.0178 
4.19437 0.833017 17.0096 
4.21655 0.833911 17.0116 
4.23878 0.834807 17.0137 
4.26106 0.835705 17.0157 
4.28338 0.836605 17.0178 
4.21655 0.841424 17.0116 
4.23878 0.842328 17.0137 
4.21655 0.848937 17.0116 
4.23878 0.849849 17.0137 
4.01863 1.0566 16.9933 
4.01863 1.06404 16.9933 
4.04044 1.06517 16.9953 
3.99688 1.07034 16.9913 
4.01863 1.07148 16.9933 
4.04044 1.07262 16.9953 
3.99688 1.07778 16.9913 
4.01863 1.07892 16.9933 
4.04044 1.08007 16.9953 
4.01863 1.08636 16.9933 
4.04044 1.08752 16.9953 
3.88878 1.10166 16.9813 
3.9103 1.10282 16.9833 
3.93188 1.10399 16.9853 
3.9535 1.10516 16.9873 
3.97516 1.10633 16.9893 
3.86729 1.10788 16.9793 
3.88878 1.10905 16.9813 
3.9103 1.11023 16.9833 
3.93188 1.1114 16.9853 
3.9535 1.11258 16.9873 
3.97516 1.11376 16.9893 
3.99688 1.11494 16.9913 
4.01863 1.11613 16.9933 
3.88878 1.11645 16.9813 
3.9103 1.11763 16.9833 
3.93188 1.11881 16.9853 
3.9535 1.12 16.9873 
3.97516 1.12118 16.9893 
3.99688 1.12237 16.9913 
4.01863 1.12357 16.9933 
3.86729 1.12265 16.9793 
3.88878 1.12384 16.9813 
3.9103 1.12503 16.9833 
3.93188 1.12622 16.9853 
3.9535 1.12741 16.9873 
3.97516 1.12861 16.9893 
3.99688 1.12981 16.9913 
3.86729 1.13004 16.9793 
3.88878 1.13123 16.9813 
3.9103 1.13243 16.9833 
3.93188 1.13363 16.9853 
3.9535 1.13483 16.9873 
3.97516 1.13603 16.9893 
3.99688 1.13724 16.9913 
3.86729 1.13743 16.9793 
3.88878 1.13863 16.9813 
3.9103 1.13983 16.9833 
3.93188 1.14104 16.9853 
3.9535 1.14225 16.9873 
3.97516 1.14346 16.9893 
3.99688 1.14467 16.9913 
3.86729 1.14481 16.9793 
3.88878 1.14602 16.9813 
3.9103 1.14723 16.9833 
3.93188 1.14845 16.9853 
3.9535 1.14966 16.9873 
3.97516 1.15088 16.9893 
3.99688 1.15211 16.9913 
3.88878 1.15341 16.9813 
3.9103 1.15463 16.9833 
3.93188 1.15586 16.9853 
3.9535 1.15708 16.9873 
3.97516 1.15831 16.9893 
3.99688 1.15954 16.9913 
3.88878 1.16081 16.9813 
3.9103 1.16204 16.9833 
3.93188 1.16327 16.9853 
3.9535 1.1645 16.9873 
3.97516 1.16573 16.9893 
3.99688 1.16697 16.9913 
3.88878 1.1682 16.9813 
3.9103 1.16944 16.9833 
3.93188 1.17068 16.9853 
3.9535 1.17192 16.9873 
3.97516 1.17316 16.9893 
3.99688 1.1744 16.9913 
3.88878 1.1756 16.9813 
3.9103 1.17684 16.9833 
3.93188 1.17808 16.9853 
3.9535 1.17933 16.9873 
3.97516 1.18058 16.9893 
3.99688 1.18184 16.9913 
3.93188 1.18549 16.9853 
3.9535 1.18675 16.9873 
3.97516 1.18801 16.9893 
3.93188 1.1929 16.9853 
3.9535 1.19417 16.9873 
3.97516 1.19543 16.9893 
3.9535 1.20158 16.9873 
3.9535 1.209 16.9873 
3.9535 1.21642 16.9873 
3.9535 1.22384 16.9873 
3.76056 1.23432 16.9695 
3.76056 1.24166 16.9695 
3.76056 1.24901 16.9695 
3.76056 1.25636 16.9695 
3.78181 1.25768 16.9714 
3.76056 1.26371 16.9695 
3.78181 1.26503 16.9714 
3.73934 1.26972 16.9675 
3.76056 1.27105 16.9695 
3.78181 1.27239 16.9714 
3.73934 1.27706 16.9675 
3.76056 1.2784 16.9695 
3.78181 1.27974 16.9714 
3.73934 1.2844 16.9675 
3.76056 1.28575 16.9695 
3.78181 1.2871 16.9714 
3.73934 1.29174 16.9675 
3.76056 1.29309 16.9695 
3.78181 1.29445 16.9714 
3.73934 1.29908 16.9675 
3.76056 1.30044 16.9695 
3.78181 1.30181 16.9714 
3.73934 1.30642 16.9675 
3.76056 1.30779 16.9695 
3.78181 1.30916 16.9714 
3.73934 1.31376 16.9675 
3.76056 1.31514 16.9695 
3.78181 1.31652 16.9714 
3.73934 1.3211 16.9675 
3.76056 1.32248 16.9695 
3.78181 1.32387 16.9714 
3.73934 1.32843 16.9675 
3.76056 1.32983 16.9695 
3.78181 1.33123 16.9714 
3.73934 1.33577 16.9675 
3.76056 1.33718 16.9695 
3.78181 1.33858 16.9714 
3.73934 1.34311 16.9675 
3.76056 1.34452 16.9695 
3.78181 1.34594 16.9714 
3.73934 1.35045 16.9675 
3.76056 1.35187 16.9695 
3.78181 1.35329 16.9714 
3.73934 1.35779 16.9675 
3.76056 1.35922 16.9695 
3.78181 1.36065 16.9714 
3.73934 1.36513 16.9675 
3.76056 1.36656 16.9695 
3.78181 1.368 16.9714 
3.73934 1.37247 16.9675 
3.76056 1.37391 16.9695 
3.78181 1.37536 16.9714 
3.73934 1.37981 16.9675 
3.76056 1.38126 16.9695 
3.78181 1.38271 16.9714 
3.73934 1.38715 16.9675 
3.76056 1.38861 16.9695 
3.78181 1.39007 16.9714 
3.73934 1.39449 16.9675 
3.76056 1.39595 16.9695 
3.78181 1.39742 16.9714 
3.73934 1.40183 16.9675 
3.76056 1.4033 16.9695 
3.78181 1.40477 16.9714 
3.73934 1.40917 16.9675 
3.76056 1.41065 16.9695 
3.78181 1.41213 16.9714 
3.73934 1.41651 16.9675 
3.76056 1.41799 16.9695 
3.78181 1.41948 16.9714 
3.73934 1.42385 16.9675 
3.76056 1.42534 16.9695 
3.78181 1.42684 16.9714 
3.73934 1.43119 16.9675 
3.76056 1.43269 16.9695 
3.78181 1.43419 16.9714 
3.73934 1.43853 16.9675 
3.76056 1.44004 16.9695 
3.78181 1.44155 16.9714 
3.73934 1.44587 16.9675 
3.76056 1.44738 16.9695 
3.78181 1.4489 16.9714 
3.73934 1.45321 16.9675 
3.76056 1.45473 16.9695 
3.78181 1.45626 16.9714 
3.73934 1.46054 16.9675 
3.76056 1.46208 16.9695 
3.78181 1.46361 16.9714 
3.71817 1.46635 16.9656 
3.73934 1.46788 16.9675 
3.76056 1.46942 16.9695 
3.78181 1.47097 16.9714 
3.71817 1.47368 16.9656 
3.73934 1.47522 16.9675 
3.76056 1.47677 16.9695 
3.78181 1.47832 16.9714 
3.71817 1.48101 16.9656 
3.73934 1.48256 16.9675 
3.76056 1.48412 16.9695 
3.78181 1.48568 16.9714 
3.71817 1.48834 16.9656 
3.73934 1.4899 16.9675 
3.76056 1.49147 16.9695 
3.78181 1.49303 16.9714 
3.71817 1.49567 16.9656 
3.73934 1.49724 16.9675 
3.76056 1.49881 16.9695 
3.78181 1.50039 16.9714 
3.69705 1.50143 16.9636 
3.71817 1.50301 16.9656 
3.73934 1.50458 16.9675 
3.76056 1.50616 16.9695 
3.69705 1.50876 16.9636 
3.71817 1.51034 16.9656 
3.73934 1.51192 16.9675 
3.76056 1.51351 16.9695 
3.69705 1.51608 16.9636 
3.71817 1.51767 16.9656 
3.73934 1.51926 16.9675 
3.76056 1.52085 16.9695 
3.67597 1.52181 16.9617 
3.69705 1.5234 16.9636 
3.71817 1.525 16.9656 
3.73934 1.5266 16.9675 
3.67597 1.52913 16.9617 
3.69705 1.53073 16.9636 
3.71817 1.53233 16.9656 
3.73934 1.53394 16.9675 
3.67597 1.53645 16.9617 
3.69705 1.53805 16.9636 
3.71817 1.53966 16.9656 
3.73934 1.54128 16.9675 
3.67597 1.54376 16.9617 
3.69705 1.54538 16.9636 
3.71817 1.547 16.9656 
3.73934 1.54862 16.9675 
3.67597 1.55108 16.9617 
3.69705 1.5527 16.9636 
3.71817 1.55433 16.9656 
3.73934 1.55596 16.9675 
3.67597 1.55839 16.9617 
3.69705 1.56002 16.9636 
3.71817 1.56166 16.9656 
