VERSION .7
FIELDS x y z
SIZE 4 4 4
TYPE F F F
COUNT 1 1 1
WIDTH 1937
HEIGHT 1
VIEWPOINT 0 0 0 1 0 0 0
POINTS 1937
DATA ascii
3.65518 2.90091 18.2425 
3.68571 2.90514 18.2436 
3.71634 2.90937 18.2447 
3.74705 2.91362 18.2459 
3.77785 2.91788 18.247 
3.62474 2.90686 18.2413 
3.65518 2.91109 18.2425 
3.68571 2.91533 18.2436 
3.71634 2.91958 18.2447 
3.74705 2.92385 18.2459 
3.77785 2.92812 18.247 
3.62474 2.91703 18.2413 
3.65518 2.92127 18.2425 
3.68571 2.92552 18.2436 
3.71634 2.92979 18.2447 
3.74705 2.93407 18.2459 
3.77785 2.93836 18.247 
3.62474 2.92719 18.2413 
3.65518 2.93145 18.2425 
3.68571 2.93572 18.2436 
3.71634 2.94 18.2447 
3.74705 2.94429 18.2459 
3.77785 2.9486 18.247 
3.62474 2.93736 18.2413 
3.65518 2.94163 18.2425 
3.68571 2.94591 18.2436 
3.71634 2.95021 18.2447 
3.74705 2.95452 18.2459 
3.77785 2.95884 18.247 
3.62474 2.94752 18.2413 
3.65518 2.95181 18.2425 
3.68571 2.9561 18.2436 
3.71634 2.96042 18.2447 
3.74705 2.96474 18.2459 
3.77785 2.96908 18.247 
3.62474 2.95768 18.2413 
3.65518 2.96198 18.2425 
3.68571 2.9663 18.2436 
3.71634 2.97062 18.2447 
3.74705 2.97496 18.2459 
3.77785 2.97931 18.247 
3.62474 2.96785 18.2413 
3.65518 2.97216 18.2425 
3.68571 2.97649 18.2436 
3.71634 2.98083 18.2447 
3.74705 2.98519 18.2459 
3.62474 2.97801 18.2413 
3.65518 2.98234 18.2425 
3.68571 2.98668 18.2436 
3.71634 2.99104 18.2447 
3.74705 2.99541 18.2459 
3.62474 2.98818 18.2413 
3.65518 2.99252 18.2425 
3.68571 2.99688 18.2436 
3.71634 3.00125 18.2447 
3.74705 3.00563 18.2459 
3.62474 2.99834 18.2413 
3.65518 3.0027 18.2425 
3.68571 3.00707 18.2436 
3.71634 3.01146 18.2447 
3.74705 3.01586 18.2459 
3.59438 3.00414 18.2402 
3.62474 3.0085 18.2413 
3.65518 3.01288 18.2425 
3.68571 3.01727 18.2436 
3.71634 3.02167 18.2447 
3.74705 3.02608 18.2459 
3.59438 3.01429 18.2402 
3.62474 3.01867 18.2413 
3.65518 3.02306 18.2425 
3.68571 3.02746 18.2436 
3.71634 3.03187 18.2447 
3.74705 3.0363 18.2459 
3.56411 3.02006 18.239 
3.59438 3.02444 18.2402 
3.62474 3.02883 18.2413 
3.65518 3.03324 18.2425 
3.68571 3.03765 18.2436 
3.71634 3.04208 18.2447 
3.74705 3.04653 18.2459 
3.56411 3.0302 18.239 
3.59438 3.03459 18.2402 
3.62474 3.03899 18.2413 
3.65518 3.04341 18.2425 
3.68571 3.04785 18.2436 
3.71634 3.05229 18.2447 
3.74705 3.05675 18.2459 
3.56411 3.04033 18.239 
3.59438 3.04474 18.2402 
3.62474 3.04916 18.2413 
3.65518 3.05359 18.2425 
3.68571 3.05804 18.2436 
3.71634 3.0625 18.2447 
3.74705 3.06697 18.2459 
3.56411 3.05046 18.239 
3.59438 3.05489 18.2402 
3.62474 3.05932 18.2413 
3.65518 3.06377 18.2425 
3.68571 3.06823 18.2436 
3.71634 3.07271 18.2447 
3.74705 3.07719 18.2459 
3.56411 3.0606 18.239 
3.59438 3.06504 18.2402 
3.62474 3.06949 18.2413 
3.65518 3.07395 18.2425 
3.68571 3.07843 18.2436 
3.71634 3.08292 18.2447 
3.74705 3.08742 18.2459 
3.56411 3.07073 18.239 
3.59438 3.07519 18.2402 
3.62474 3.07965 18.2413 
3.65518 3.08413 18.2425 
3.68571 3.08862 18.2436 
3.71634 3.09312 18.2447 
4.44616 3.20047 18.2721 
4.47905 3.20531 18.2733 
3.59438 3.08533 18.2402 
3.62474 3.08981 18.2413 
3.65518 3.09431 18.2425 
3.68571 3.09881 18.2436 
4.41338 3.2062 18.2708 
4.44616 3.21104 18.2721 
4.47905 3.21589 18.2733 
4.51203 3.22076 18.2745 
3.59438 3.09548 18.2402 
3.62474 3.09998 18.2413 
3.65518 3.10449 18.2425 
3.68571 3.10901 18.2436 
4.41338 3.21674 18.2708 
4.44616 3.2216 18.2721 
4.47905 3.22647 18.2733 
4.51203 3.23135 18.2745 
3.59438 3.10563 18.2402 
3.62474 3.11014 18.2413 
3.65518 3.11466 18.2425 
4.3807 3.22244 18.2696 
4.41338 3.22729 18.2708 
4.44616 3.23216 18.2721 
4.47905 3.23705 18.2733 
4.51203 3.24194 18.2745 
3.59438 3.11578 18.2402 
3.62474 3.12031 18.2413 
3.65518 3.12484 18.2425 
4.3807 3.23297 18.2696 
4.41338 3.23784 18.2708 
4.44616 3.24272 18.2721 
4.47905 3.24762 18.2733 
4.51203 3.25254 18.2745 
4.54511 3.25747 18.2758 
3.59438 3.12593 18.2402 
3.62474 3.13047 18.2413 
3.65518 3.13502 18.2425 
4.3807 3.2435 18.2696 
4.41338 3.24838 18.2708 
4.44616 3.25329 18.2721 
4.47905 3.2582 18.2733 
4.51203 3.26313 18.2745 
4.54511 3.26808 18.2758 
4.3807 3.25403 18.2696 
4.41338 3.25893 18.2708 
4.44616 3.26385 18.2721 
4.47905 3.26878 18.2733 
4.51203 3.27373 18.2745 
4.54511 3.27869 18.2758 
4.3807 3.26456 18.2696 
4.41338 3.26948 18.2708 
4.44616 3.27441 18.2721 
4.47905 3.27936 18.2733 
4.51203 3.28432 18.2745 
4.54511 3.2893 18.2758 
4.3807 3.27509 18.2696 
4.41338 3.28002 18.2708 
4.44616 3.28497 18.2721 
4.47905 3.28994 18.2733 
4.51203 3.29492 18.2745 
4.54511 3.29991 18.2758 
4.3807 3.28562 18.2696 
4.41338 3.29057 18.2708 
4.44616 3.29554 18.2721 
4.47905 3.30052 18.2733 
4.51203 3.30551 18.2745 
4.54511 3.31052 18.2758 
4.3807 3.29615 18.2696 
4.41338 3.30112 18.2708 
4.44616 3.3061 18.2721 
4.47905 3.3111 18.2733 
4.51203 3.31611 18.2745 
3.38432 3.15481 18.2323 
3.41407 3.15934 18.2334 
4.41338 3.31166 18.2708 
4.44616 3.31666 18.2721 
4.47905 3.32167 18.2733 
4.51203 3.3267 18.2745 
3.35466 3.16032 18.2312 
3.38432 3.16485 18.2323 
3.41407 3.1694 18.2334 
4.47905 3.33225 18.2733 
4.51203 3.3373 18.2745 
3.32508 3.16581 18.2301 
3.35466 3.17035 18.2312 
3.38432 3.1749 18.2323 
3.41407 3.17946 18.2334 
3.44391 3.18404 18.2346 
3.32508 3.17583 18.2301 
3.35466 3.18038 18.2312 
3.38432 3.18495 18.2323 
3.41407 3.18953 18.2334 
3.44391 3.19412 18.2346 
3.32508 3.18585 18.2301 
3.35466 3.19042 18.2312 
3.38432 3.195 18.2323 
3.41407 3.19959 18.2334 
3.32508 3.19587 18.2301 
3.35466 3.20045 18.2312 
3.38432 3.20504 18.2323 
3.41407 3.20965 18.2334 
3.32508 3.20589 18.2301 
3.35466 3.21048 18.2312 
3.38432 3.21509 18.2323 
3.32508 3.21591 18.2301 
3.35466 3.22051 18.2312 
8.27756 0.173847 18.2417 
8.32305 0.174156 18.2417 
8.3687 0.174466 18.2417 
8.41452 0.174777 18.2417 
8.4605 0.175089 18.2417 
8.27756 0.186265 18.2417 
8.32305 0.186595 18.2417 
8.3687 0.186928 18.2417 
8.41452 0.187261 18.2417 
8.4605 0.187596 18.2417 
0.197702 0.926292 18.2417 
0.197702 0.93479 18.2417 
0.197702 0.943288 18.2417 
2.16069 1.57821 18.2417 
2.18702 1.58034 18.2417 
2.18702 1.5898 18.2417 
2.16069 1.59711 18.2417 
2.18702 1.59927 18.2417 
2.21343 1.60143 18.2417 
2.16069 1.60656 18.2417 
2.18702 1.60873 18.2417 
2.21343 1.61091 18.2417 
2.21343 1.62038 18.2417 
2.23991 1.62258 18.2417 
-0.136092 1.43382 18.2417 
2.23991 1.63207 18.2417 
-0.136092 1.44216 18.2417 
-0.156532 1.44877 18.2417 
-0.136092 1.45049 18.2417 
-0.156532 1.45709 18.2417 
-0.136092 1.45883 18.2417 
2.26646 1.66279 18.2417 
2.23991 1.67002 18.2417 
2.31978 1.70542 18.2417 
2.31978 1.71495 18.2417 
2.31978 1.72448 18.2417 
2.37339 1.77695 18.2417 
2.4003 1.77938 18.2417 
2.37339 1.78651 18.2417 
2.4003 1.78895 18.2417 
2.37339 1.79606 18.2417 
2.4003 1.79852 18.2417 
2.34655 1.80315 18.2417 
2.37339 1.80561 18.2417 
2.4003 1.80808 18.2417 
2.42729 1.81056 18.2417 
2.37339 1.81517 18.2417 
2.4003 1.81765 18.2417 
2.42729 1.82014 18.2417 
2.4003 1.82722 18.2417 
2.42729 1.82972 18.2417 
2.4003 1.83678 18.2417 
2.42729 1.8393 18.2417 
2.4003 1.84635 18.2417 
2.42729 1.84888 18.2417 
2.45435 1.85141 18.2417 
2.42729 1.85845 18.2417 
2.45435 1.861 18.2417 
2.48149 1.86356 18.2417 
2.42729 1.86803 18.2417 
2.45435 1.87059 18.2417 
2.48149 1.87316 18.2417 
2.5087 1.87574 18.2417 
2.42729 1.87761 18.2417 
2.45435 1.88019 18.2417 
2.48149 1.88277 18.2417 
2.5087 1.88535 18.2417 
2.42729 1.88719 18.2417 
2.45435 1.88978 18.2417 
2.48149 1.89237 18.2417 
2.5087 1.89497 18.2417 
2.42729 1.89677 18.2417 
2.45435 1.89937 18.2417 
2.48149 1.90198 18.2417 
2.5087 1.90459 18.2417 
2.42729 1.90635 18.2417 
2.45435 1.90897 18.2417 
2.48149 1.91159 18.2417 
2.5087 1.91421 18.2417 
2.45435 1.91856 18.2417 
2.48149 1.92119 18.2417 
2.48149 1.9308 18.2417 
2.5087 1.93345 18.2417 
2.5087 1.94307 18.2417 
2.5087 1.95269 18.2417 
2.67355 2.00772 18.2417 
0.304688 1.7784 18.2417 
0.326242 1.78057 18.2417 
2.70129 2.02022 18.2417 
2.72911 2.02302 18.2417 
2.75701 2.02584 18.2417 
2.72911 2.03275 18.2417 
2.75701 2.03558 18.2417 
2.78498 2.03841 18.2417 
2.75701 2.04532 18.2417 
2.78498 2.04817 18.2417 
2.81304 2.05103 18.2417 
2.84117 2.05389 18.2417 
2.81304 2.06079 18.2417 
2.84117 2.06367 18.2417 
2.86938 2.06656 18.2417 
2.89767 2.06945 18.2417 
2.84117 2.07345 18.2417 
2.86938 2.07635 18.2417 
2.89767 2.07926 18.2417 
2.92603 2.08218 18.2417 
2.95448 2.08511 18.2417 
2.86938 2.08615 18.2417 
2.89767 2.08907 18.2417 
2.92603 2.092 18.2417 
2.95448 2.09494 18.2417 
2.98301 2.09789 18.2417 
3.01162 2.10084 18.2417 
2.92603 2.10182 18.2417 
2.95448 2.10478 18.2417 
2.98301 2.10774 18.2417 
3.01162 2.11071 18.2417 
3.0403 2.11369 18.2417 
3.06907 2.11667 18.2417 
3.09793 2.11967 18.2417 
2.92603 2.11164 18.2417 
2.95448 2.11461 18.2417 
2.98301 2.11759 18.2417 
3.01162 2.12057 18.2417 
3.0403 2.12356 18.2417 
3.06907 2.12656 18.2417 
3.09793 2.12957 18.2417 
2.98301 2.12744 18.2417 
3.01162 2.13043 18.2417 
3.0403 2.13344 18.2417 
3.06907 2.13645 18.2417 
3.09793 2.13948 18.2417 
3.12686 2.14251 18.2417 
3.15587 2.14555 18.2417 
3.18497 2.1486 18.2417 
2.98301 2.13729 18.2417 
3.01162 2.1403 18.2417 
3.0403 2.14332 18.2417 
3.06907 2.14635 18.2417 
3.09793 2.14938 18.2417 
3.12686 2.15243 18.2417 
3.15587 2.15548 18.2417 
3.18497 2.15855 18.2417 
2.98301 2.14713 18.2417 
3.01162 2.15016 18.2417 
3.0403 2.15319 18.2417 
3.06907 2.15624 18.2417 
3.09793 2.15929 18.2417 
3.12686 2.16235 18.2417 
3.15587 2.16542 18.2417 
3.18497 2.16849 18.2417 
3.21415 2.17158 18.2417 
3.24342 2.17467 18.2417 
2.98301 2.15698 18.2417 
3.01162 2.16002 18.2417 
3.0403 2.16307 18.2417 
3.06907 2.16613 18.2417 
3.09793 2.16919 18.2417 
3.12686 2.17227 18.2417 
3.15587 2.17535 18.2417 
3.18497 2.17844 18.2417 
3.21415 2.18154 18.2417 
3.24342 2.18465 18.2417 
3.27276 2.18777 18.2417 
3.30219 2.19089 18.2417 
3.09793 2.1791 18.2417 
3.12686 2.18219 18.2417 
3.15587 2.18528 18.2417 
3.18497 2.18839 18.2417 
3.21415 2.1915 18.2417 
3.24342 2.19462 18.2417 
3.27276 2.19776 18.2417 
3.30219 2.2009 18.2417 
3.33171 2.20405 18.2417 
3.36131 2.20721 18.2417 
3.09793 2.189 18.2417 
3.12686 2.1921 18.2417 
3.15587 2.19521 18.2417 
3.18497 2.19833 18.2417 
3.21415 2.20146 18.2417 
3.24342 2.2046 18.2417 
3.27276 2.20775 18.2417 
3.30219 2.2109 18.2417 
3.33171 2.21407 18.2417 
3.36131 2.21724 18.2417 
3.15587 2.20515 18.2417 
3.18497 2.20828 18.2417 
3.21415 2.21142 18.2417 
3.24342 2.21458 18.2417 
3.27276 2.21774 18.2417 
3.30219 2.22091 18.2417 
3.33171 2.22408 18.2417 
3.36131 2.22727 18.2417 
3.39099 2.23047 18.2417 
3.42076 2.23367 18.2417 
3.15587 2.21508 18.2417 
3.18497 2.21823 18.2417 
3.21415 2.22139 18.2417 
3.24342 2.22455 18.2417 
3.27276 2.22773 18.2417 
3.30219 2.23091 18.2417 
3.33171 2.2341 18.2417 
3.36131 2.2373 18.2417 
3.39099 2.24052 18.2417 
3.42076 2.24374 18.2417 
3.45062 2.24697 18.2417 
3.21415 2.23135 18.2417 
3.24342 2.23453 18.2417 
3.27276 2.23772 18.2417 
3.30219 2.24091 18.2417 
3.33171 2.24412 18.2417 
3.36131 2.24734 18.2417 
3.39099 2.25056 18.2417 
3.42076 2.2538 18.2417 
3.45062 2.25704 18.2417 
3.48056 2.2603 18.2417 
3.21415 2.24131 18.2417 
3.24342 2.2445 18.2417 
3.27276 2.24771 18.2417 
3.30219 2.25092 18.2417 
3.33171 2.25414 18.2417 
3.36131 2.25737 18.2417 
3.39099 2.26061 18.2417 
3.42076 2.26386 18.2417 
3.45062 2.26712 18.2417 
3.48056 2.27039 18.2417 
3.51059 2.27366 18.2417 
3.21415 2.25127 18.2417 
3.24342 2.25448 18.2417 
3.27276 2.2577 18.2417 
3.30219 2.26092 18.2417 
3.33171 2.26416 18.2417 
3.36131 2.2674 18.2417 
3.39099 2.27066 18.2417 
3.42076 2.27392 18.2417 
3.45062 2.27719 18.2417 
3.48056 2.28048 18.2417 
3.51059 2.28377 18.2417 
3.21415 2.26123 18.2417 
3.24342 2.26445 18.2417 
3.27276 2.26769 18.2417 
3.30219 2.27093 18.2417 
3.33171 2.27418 18.2417 
3.36131 2.27744 18.2417 
3.39099 2.2807 18.2417 
3.42076 2.28398 18.2417 
3.45062 2.28727 18.2417 
3.48056 2.29057 18.2417 
3.51059 2.29387 18.2417 
3.5407 2.29719 18.2417 
3.21415 2.27119 18.2417 
3.24342 2.27443 18.2417 
3.27276 2.27767 18.2417 
3.30219 2.28093 18.2417 
3.33171 2.28419 18.2417 
3.36131 2.28747 18.2417 
3.39099 2.29075 18.2417 
3.42076 2.29404 18.2417 
3.45062 2.29735 18.2417 
3.48056 2.30066 18.2417 
3.51059 2.30398 18.2417 
3.5407 2.30731 18.2417 
3.21415 2.28115 18.2417 
3.24342 2.2844 18.2417 
3.27276 2.28766 18.2417 
3.30219 2.29093 18.2417 
3.33171 2.29421 18.2417 
3.36131 2.2975 18.2417 
3.39099 2.3008 18.2417 
3.42076 2.30411 18.2417 
3.45062 2.30742 18.2417 
3.48056 2.31075 18.2417 
3.51059 2.31408 18.2417 
3.5407 2.31743 18.2417 
3.57091 2.32079 18.2417 
3.27276 2.29765 18.2417 
3.30219 2.30094 18.2417 
3.33171 2.30423 18.2417 
3.36131 2.30753 18.2417 
3.39099 2.31085 18.2417 
3.42076 2.31417 18.2417 
3.45062 2.3175 18.2417 
3.48056 2.32084 18.2417 
3.51059 2.32419 18.2417 
3.5407 2.32755 18.2417 
3.57091 2.33092 18.2417 
3.6012 2.3343 18.2417 
3.27276 2.30764 18.2417 
3.30219 2.31094 18.2417 
3.33171 2.31425 18.2417 
3.36131 2.31757 18.2417 
3.39099 2.32089 18.2417 
3.42076 2.32423 18.2417 
3.45062 2.32757 18.2417 
3.48056 2.33093 18.2417 
3.51059 2.33429 18.2417 
3.5407 2.33767 18.2417 
3.57091 2.34105 18.2417 
3.6012 2.34445 18.2417 
3.33171 2.32427 18.2417 
3.36131 2.3276 18.2417 
3.39099 2.33094 18.2417 
3.42076 2.33429 18.2417 
3.45062 2.33765 18.2417 
3.48056 2.34102 18.2417 
3.51059 2.3444 18.2417 
3.5407 2.34779 18.2417 
3.57091 2.35119 18.2417 
3.6012 2.3546 18.2417 
3.33171 2.33429 18.2417 
3.36131 2.33763 18.2417 
3.39099 2.34099 18.2417 
3.42076 2.34435 18.2417 
3.45062 2.34773 18.2417 
3.48056 2.35111 18.2417 
3.51059 2.35451 18.2417 
3.5407 2.35791 18.2417 
3.57091 2.36132 18.2417 
3.6012 2.36475 18.2417 
3.39099 2.35103 18.2417 
3.42076 2.35441 18.2417 
3.45062 2.3578 18.2417 
3.48056 2.3612 18.2417 
3.51059 2.36461 18.2417 
3.5407 2.36803 18.2417 
3.57091 2.37146 18.2417 
3.6012 2.3749 18.2417 
3.63157 2.37834 18.2417 
3.39099 2.36108 18.2417 
3.42076 2.36448 18.2417 
3.45062 2.36788 18.2417 
3.48056 2.37129 18.2417 
3.51059 2.37472 18.2417 
3.5407 2.37815 18.2417 
3.57091 2.38159 18.2417 
3.6012 2.38504 18.2417 
3.63157 2.38851 18.2417 
3.66204 2.39198 18.2417 
3.39099 2.37113 18.2417 
3.42076 2.37454 18.2417 
3.45062 2.37795 18.2417 
3.48056 2.38138 18.2417 
3.51059 2.38482 18.2417 
3.5407 2.38827 18.2417 
3.57091 2.39173 18.2417 
3.6012 2.39519 18.2417 
3.63157 2.39867 18.2417 
3.66204 2.40216 18.2417 
3.42076 2.3846 18.2417 
3.45062 2.38803 18.2417 
3.48056 2.39147 18.2417 
3.51059 2.39493 18.2417 
3.5407 2.39839 18.2417 
3.57091 2.40186 18.2417 
3.6012 2.40534 18.2417 
3.63157 2.40884 18.2417 
3.66204 2.41234 18.2417 
3.45062 2.39811 18.2417 
3.48056 2.40156 18.2417 
3.51059 2.40503 18.2417 
3.5407 2.40851 18.2417 
3.57091 2.41199 18.2417 
3.6012 2.41549 18.2417 
3.63157 2.419 18.2417 
3.66204 2.42252 18.2417 
3.6926 2.42604 18.2417 
3.45062 2.40818 18.2417 
3.48056 2.41165 18.2417 
3.51059 2.41514 18.2417 
3.5407 2.41863 18.2417 
3.57091 2.42213 18.2417 
3.6012 2.42564 18.2417 
3.63157 2.42916 18.2417 
3.66204 2.4327 18.2417 
3.6926 2.43624 18.2417 
0.905764 2.12198 18.2417 
3.51059 2.42524 18.2417 
3.5407 2.42875 18.2417 
3.57091 2.43226 18.2417 
3.6012 2.43579 18.2417 
3.63157 2.43933 18.2417 
3.66204 2.44287 18.2417 
3.6926 2.44643 18.2417 
3.51059 2.43535 18.2417 
3.5407 2.43887 18.2417 
3.57091 2.4424 18.2417 
3.6012 2.44594 18.2417 
3.63157 2.44949 18.2417 
3.66204 2.45305 18.2417 
3.6926 2.45662 18.2417 
3.72324 2.46021 18.2417 
3.51059 2.44545 18.2417 
3.5407 2.44899 18.2417 
3.57091 2.45253 18.2417 
3.6012 2.45609 18.2417 
3.63157 2.45965 18.2417 
3.66204 2.46323 18.2417 
3.6926 2.46682 18.2417 
3.72324 2.47042 18.2417 
3.51059 2.45556 18.2417 
3.5407 2.45911 18.2417 
3.57091 2.46267 18.2417 
3.6012 2.46624 18.2417 
3.63157 2.46982 18.2417 
3.66204 2.47341 18.2417 
3.6926 2.47701 18.2417 
3.72324 2.48062 18.2417 
3.51059 2.46566 18.2417 
3.5407 2.46923 18.2417 
3.57091 2.4728 18.2417 
3.6012 2.47639 18.2417 
3.63157 2.47998 18.2417 
3.66204 2.48359 18.2417 
3.6926 2.48721 18.2417 
3.72324 2.49083 18.2417 
3.51059 2.47577 18.2417 
3.5407 2.47935 18.2417 
3.57091 2.48294 18.2417 
3.6012 2.48654 18.2417 
3.63157 2.49015 18.2417 
3.66204 2.49377 18.2417 
3.6926 2.4974 18.2417 
3.72324 2.50104 18.2417 
3.51059 2.48587 18.2417 
3.5407 2.48947 18.2417 
3.57091 2.49307 18.2417 
3.6012 2.49669 18.2417 
3.63157 2.50031 18.2417 
3.66204 2.50395 18.2417 
3.6926 2.50759 18.2417 
3.72324 2.51125 18.2417 
3.51059 2.49598 18.2417 
3.5407 2.49959 18.2417 
3.57091 2.5032 18.2417 
3.6012 2.50683 18.2417 
3.63157 2.51047 18.2417 
3.66204 2.51412 18.2417 
3.6926 2.51779 18.2417 
3.72324 2.52146 18.2417 
3.57091 2.51334 18.2417 
3.6012 2.51698 18.2417 
3.63157 2.52064 18.2417 
3.66204 2.5243 18.2417 
3.6926 2.52798 18.2417 
3.72324 2.53167 18.2417 
3.75397 2.53536 18.2417 
3.57091 2.52347 18.2417 
3.6012 2.52713 18.2417 
3.63157 2.5308 18.2417 
3.66204 2.53448 18.2417 
3.6926 2.53817 18.2417 
3.72324 2.54187 18.2417 
3.75397 2.54559 18.2417 
3.57091 2.53361 18.2417 
3.6012 2.53728 18.2417 
3.63157 2.54097 18.2417 
3.66204 2.54466 18.2417 
3.6926 2.54837 18.2417 
3.72324 2.55208 18.2417 
3.75397 2.55581 18.2417 
3.7848 2.55955 18.2417 
3.57091 2.54374 18.2417 
3.6012 2.54743 18.2417 
3.63157 2.55113 18.2417 
3.66204 2.55484 18.2417 
3.6926 2.55856 18.2417 
3.72324 2.56229 18.2417 
3.75397 2.56603 18.2417 
3.7848 2.56979 18.2417 
3.57091 2.55388 18.2417 
3.6012 2.55758 18.2417 
3.63157 2.56129 18.2417 
3.66204 2.56502 18.2417 
3.6926 2.56875 18.2417 
3.72324 2.5725 18.2417 
3.75397 2.57626 18.2417 
3.7848 2.58002 18.2417 
3.57091 2.56401 18.2417 
3.6012 2.56773 18.2417 
3.63157 2.57146 18.2417 
3.66204 2.5752 18.2417 
3.6926 2.57895 18.2417 
3.72324 2.58271 18.2417 
3.75397 2.58648 18.2417 
3.7848 2.59026 18.2417 
3.57091 2.57415 18.2417 
3.6012 2.57788 18.2417 
3.63157 2.58162 18.2417 
3.66204 2.58537 18.2417 
3.6926 2.58914 18.2417 
3.72324 2.59292 18.2417 
3.75397 2.5967 18.2417 
3.7848 2.6005 18.2417 
3.57091 2.58428 18.2417 
3.6012 2.58803 18.2417 
3.63157 2.59178 18.2417 
3.66204 2.59555 18.2417 
3.6926 2.59933 18.2417 
3.72324 2.60312 18.2417 
3.75397 2.60693 18.2417 
3.7848 2.61074 18.2417 
3.81571 2.61456 18.2417 
3.57091 2.59441 18.2417 
3.6012 2.59818 18.2417 
3.63157 2.60195 18.2417 
3.66204 2.60573 18.2417 
3.6926 2.60953 18.2417 
3.72324 2.61333 18.2417 
3.75397 2.61715 18.2417 
3.7848 2.62098 18.2417 
3.57091 2.60455 18.2417 
3.6012 2.60833 18.2417 
3.63157 2.61211 18.2417 
3.66204 2.61591 18.2417 
3.6926 2.61972 18.2417 
3.72324 2.62354 18.2417 
3.75397 2.62737 18.2417 
3.7848 2.63121 18.2417 
3.57091 2.61468 18.2417 
3.6012 2.61847 18.2417 
3.63157 2.62228 18.2417 
3.66204 2.62609 18.2417 
3.6926 2.62991 18.2417 
3.72324 2.63375 18.2417 
3.75397 2.6376 18.2417 
3.7848 2.64145 18.2417 
3.81571 2.64532 18.2417 
3.57091 2.62482 18.2417 
3.6012 2.62862 18.2417 
3.63157 2.63244 18.2417 
3.66204 2.63627 18.2417 
3.6926 2.64011 18.2417 
3.72324 2.64396 18.2417 
3.75397 2.64782 18.2417 
3.7848 2.65169 18.2417 
3.81571 2.65558 18.2417 
3.57091 2.63495 18.2417 
3.6012 2.63877 18.2417 
3.63157 2.6426 18.2417 
3.66204 2.64645 18.2417 
3.6926 2.6503 18.2417 
3.72324 2.65417 18.2417 
3.75397 2.65804 18.2417 
3.7848 2.66193 18.2417 
3.81571 2.66583 18.2417 
3.57091 2.64509 18.2417 
3.6012 2.64892 18.2417 
3.63157 2.65277 18.2417 
3.66204 2.65663 18.2417 
3.6926 2.66049 18.2417 
3.72324 2.66437 18.2417 
3.75397 2.66827 18.2417 
3.7848 2.67217 18.2417 
3.81571 2.67608 18.2417 
3.63157 2.66293 18.2417 
3.66204 2.6668 18.2417 
3.6926 2.67069 18.2417 
3.72324 2.67458 18.2417 
3.75397 2.67849 18.2417 
3.7848 2.68241 18.2417 
3.81571 2.68633 18.2417 
3.63157 2.6731 18.2417 
3.66204 2.67698 18.2417 
3.6926 2.68088 18.2417 
3.72324 2.68479 18.2417 
3.75397 2.68871 18.2417 
3.7848 2.69264 18.2417 
3.81571 2.69659 18.2417 
3.63157 2.68326 18.2417 
3.66204 2.68716 18.2417 
3.6926 2.69107 18.2417 
3.72324 2.695 18.2417 
3.75397 2.69893 18.2417 
3.7848 2.70288 18.2417 
3.81571 2.70684 18.2417 
3.63157 2.69342 18.2417 
3.66204 2.69734 18.2417 
3.6926 2.70127 18.2417 
3.72324 2.70521 18.2417 
3.75397 2.70916 18.2417 
3.7848 2.71312 18.2417 
3.81571 2.71709 18.2417 
3.84672 2.72108 18.2417 
3.63157 2.70359 18.2417 
3.66204 2.70752 18.2417 
3.6926 2.71146 18.2417 
3.72324 2.71542 18.2417 
3.75397 2.71938 18.2417 
3.7848 2.72336 18.2417 
3.81571 2.72735 18.2417 
3.84672 2.73135 18.2417 
3.63157 2.71375 18.2417 
3.66204 2.7177 18.2417 
3.6926 2.72165 18.2417 
3.72324 2.72562 18.2417 
3.75397 2.7296 18.2417 
3.7848 2.7336 18.2417 
3.81571 2.7376 18.2417 
3.84672 2.74162 18.2417 
3.63157 2.72392 18.2417 
3.66204 2.72788 18.2417 
3.6926 2.73185 18.2417 
3.72324 2.73583 18.2417 
3.75397 2.73983 18.2417 
3.7848 2.74383 18.2417 
3.81571 2.74785 18.2417 
3.84672 2.75188 18.2417 
3.63157 2.73408 18.2417 
3.66204 2.73805 18.2417 
3.6926 2.74204 18.2417 
3.72324 2.74604 18.2417 
3.75397 2.75005 18.2417 
3.7848 2.75407 18.2417 
3.81571 2.75811 18.2417 
3.84672 2.76215 18.2417 
3.63157 2.74424 18.2417 
3.66204 2.74823 18.2417 
3.6926 2.75224 18.2417 
3.72324 2.75625 18.2417 
3.75397 2.76027 18.2417 
3.7848 2.76431 18.2417 
3.81571 2.76836 18.2417 
3.84672 2.77242 18.2417 
3.63157 2.75441 18.2417 
3.66204 2.75841 18.2417 
3.6926 2.76243 18.2417 
3.72324 2.76646 18.2417 
3.75397 2.7705 18.2417 
3.7848 2.77455 18.2417 
3.81571 2.77861 18.2417 
3.66204 2.76859 18.2417 
3.6926 2.77262 18.2417 
3.72324 2.77667 18.2417 
3.75397 2.78072 18.2417 
3.7848 2.78479 18.2417 
3.81571 2.78887 18.2417 
3.6926 2.78282 18.2417 
3.72324 2.78687 18.2417 
3.75397 2.79094 18.2417 
3.7848 2.79503 18.2417 
3.81571 2.79912 18.2417 
3.6926 2.79301 18.2417 
3.72324 2.79708 18.2417 
3.75397 2.80117 18.2417 
3.7848 2.80526 18.2417 
3.81571 2.80937 18.2417 
3.6926 2.8032 18.2417 
3.72324 2.80729 18.2417 
3.75397 2.81139 18.2417 
3.7848 2.8155 18.2417 
3.81571 2.81963 18.2417 
3.6926 2.8134 18.2417 
3.72324 2.8175 18.2417 
3.75397 2.82161 18.2417 
3.7848 2.82574 18.2417 
3.81571 2.82988 18.2417 
3.6926 2.82359 18.2417 
3.72324 2.82771 18.2417 
3.75397 2.83184 18.2417 
3.7848 2.83598 18.2417 
3.6926 2.83378 18.2417 
3.72324 2.83792 18.2417 
3.75397 2.84206 18.2417 
3.7848 2.84622 18.2417 
3.6926 2.84398 18.2417 
3.72324 2.84812 18.2417 
3.75397 2.85228 18.2417 
3.7848 2.85646 18.2417 
3.63157 2.84588 18.2417 
3.66204 2.85002 18.2417 
3.6926 2.85417 18.2417 
3.72324 2.85833 18.2417 
3.75397 2.86251 18.2417 
3.7848 2.86669 18.2417 
3.81571 2.87089 18.2417 
3.63157 2.85605 18.2417 
3.66204 2.8602 18.2417 
3.6926 2.86436 18.2417 
3.72324 2.86854 18.2417 
3.75397 2.87273 18.2417 
3.7848 2.87693 18.2417 
3.81571 2.88115 18.2417 
3.63157 2.86621 18.2417 
3.66204 2.87038 18.2417 
3.6926 2.87456 18.2417 
3.72324 2.87875 18.2417 
3.75397 2.88295 18.2417 
3.7848 2.88717 18.2417 
3.81571 2.8914 18.2417 
3.66204 2.88056 18.2417 
3.6926 2.88475 18.2417 
3.72324 2.88896 18.2417 
3.75397 2.89318 18.2417 
3.7848 2.89741 18.2417 
3.81571 2.90165 18.2417 
3.66204 2.89073 18.2417 
3.6926 2.89494 18.2417 
3.72324 2.89917 18.2417 
3.75397 2.9034 18.2417 
3.7848 2.90765 18.2417 
3.81571 2.91191 18.2417 
3.66204 2.90091 18.2417 
3.6926 2.90514 18.2417 
3.72324 2.90937 18.2417 
3.75397 2.91362 18.2417 
3.7848 2.91788 18.2417 
3.81571 2.92216 18.2417 
3.63157 2.90686 18.2417 
3.66204 2.91109 18.2417 
3.6926 2.91533 18.2417 
3.72324 2.91958 18.2417 
3.75397 2.92385 18.2417 
3.7848 2.92812 18.2417 
3.81571 2.93241 18.2417 
3.66204 2.92127 18.2417 
3.6926 2.92552 18.2417 
3.72324 2.92979 18.2417 
3.75397 2.93407 18.2417 
3.7848 2.93836 18.2417 
3.81571 2.94266 18.2417 
3.63157 2.92719 18.2417 
3.66204 2.93145 18.2417 
3.6926 2.93572 18.2417 
3.72324 2.94 18.2417 
3.75397 2.94429 18.2417 
3.7848 2.9486 18.2417 
3.63157 2.93736 18.2417 
3.66204 2.94163 18.2417 
3.6926 2.94591 18.2417 
3.72324 2.95021 18.2417 
3.75397 2.95452 18.2417 
3.7848 2.95884 18.2417 
3.63157 2.94752 18.2417 
3.66204 2.95181 18.2417 
3.6926 2.9561 18.2417 
3.72324 2.96042 18.2417 
3.75397 2.96474 18.2417 
3.7848 2.96908 18.2417 
3.63157 2.95768 18.2417 
3.66204 2.96198 18.2417 
3.6926 2.9663 18.2417 
3.72324 2.97062 18.2417 
3.75397 2.97496 18.2417 
3.7848 2.97931 18.2417 
3.63157 2.96785 18.2417 
3.66204 2.97216 18.2417 
3.6926 2.97649 18.2417 
3.72324 2.98083 18.2417 
3.75397 2.98519 18.2417 
3.7848 2.98955 18.2417 
3.63157 2.97801 18.2417 
3.66204 2.98234 18.2417 
3.6926 2.98668 18.2417 
3.72324 2.99104 18.2417 
3.75397 2.99541 18.2417 
3.7848 2.99979 18.2417 
3.63157 2.98818 18.2417 
3.66204 2.99252 18.2417 
3.6926 2.99688 18.2417 
3.72324 3.00125 18.2417 
3.75397 3.00563 18.2417 
3.63157 2.99834 18.2417 
3.66204 3.0027 18.2417 
3.6926 3.00707 18.2417 
3.72324 3.01146 18.2417 
3.75397 3.01586 18.2417 
3.6012 3.00414 18.2417 
3.63157 3.0085 18.2417 
3.66204 3.01288 18.2417 
3.6926 3.01727 18.2417 
3.72324 3.02167 18.2417 
3.75397 3.02608 18.2417 
3.6012 3.01429 18.2417 
3.63157 3.01867 18.2417 
3.66204 3.02306 18.2417 
3.6926 3.02746 18.2417 
3.72324 3.03187 18.2417 
3.75397 3.0363 18.2417 
3.57091 3.02006 18.2417 
3.6012 3.02444 18.2417 
3.63157 3.02883 18.2417 
3.66204 3.03324 18.2417 
3.6926 3.03765 18.2417 
3.72324 3.04208 18.2417 
3.75397 3.04653 18.2417 
3.57091 3.0302 18.2417 
3.6012 3.03459 18.2417 
3.63157 3.03899 18.2417 
3.66204 3.04341 18.2417 
3.6926 3.04785 18.2417 
3.72324 3.05229 18.2417 
3.75397 3.05675 18.2417 
3.57091 3.04033 18.2417 
3.6012 3.04474 18.2417 
3.63157 3.04916 18.2417 
3.66204 3.05359 18.2417 
3.6926 3.05804 18.2417 
3.72324 3.0625 18.2417 
3.75397 3.06697 18.2417 
3.57091 3.05046 18.2417 
3.6012 3.05489 18.2417 
3.63157 3.05932 18.2417 
3.66204 3.06377 18.2417 
3.6926 3.06823 18.2417 
3.72324 3.07271 18.2417 
3.75397 3.07719 18.2417 
3.57091 3.0606 18.2417 
3.6012 3.06504 18.2417 
3.63157 3.06949 18.2417 
3.66204 3.07395 18.2417 
3.6926 3.07843 18.2417 
3.72324 3.08292 18.2417 
3.75397 3.08742 18.2417 
4.42077 3.1851 18.2417 
4.45358 3.18991 18.2417 
4.48648 3.19473 18.2417 
4.51949 3.19957 18.2417 
4.55259 3.20442 18.2417 
3.57091 3.07073 18.2417 
3.6012 3.07519 18.2417 
3.63157 3.07965 18.2417 
3.66204 3.08413 18.2417 
3.6926 3.08862 18.2417 
3.72324 3.09312 18.2417 
3.75397 3.09764 18.2417 
4.42077 3.19565 18.2417 
4.45358 3.20047 18.2417 
4.48648 3.20531 18.2417 
4.51949 3.21016 18.2417 
4.55259 3.21503 18.2417 
4.5858 3.21991 18.2417 
3.6012 3.08533 18.2417 
3.63157 3.08981 18.2417 
3.66204 3.09431 18.2417 
3.6926 3.09881 18.2417 
3.72324 3.10333 18.2417 
4.38806 3.20137 18.2417 
4.42077 3.2062 18.2417 
4.45358 3.21104 18.2417 
4.48648 3.21589 18.2417 
4.51949 3.22076 18.2417 
4.55259 3.22564 18.2417 
4.5858 3.23053 18.2417 
4.61911 3.23545 18.2417 
3.6012 3.09548 18.2417 
3.63157 3.09998 18.2417 
3.66204 3.10449 18.2417 
3.6926 3.10901 18.2417 
4.38806 3.21191 18.2417 
4.42077 3.21674 18.2417 
4.45358 3.2216 18.2417 
4.48648 3.22647 18.2417 
4.51949 3.23135 18.2417 
4.55259 3.23625 18.2417 
4.5858 3.24116 18.2417 
4.61911 3.24609 18.2417 
3.6012 3.10563 18.2417 
3.63157 3.11014 18.2417 
3.66204 3.11466 18.2417 
3.6926 3.1192 18.2417 
4.38806 3.22244 18.2417 
4.42077 3.22729 18.2417 
4.45358 3.23216 18.2417 
4.48648 3.23705 18.2417 
4.51949 3.24194 18.2417 
4.55259 3.24686 18.2417 
4.5858 3.25179 18.2417 
4.61911 3.25673 18.2417 
3.6012 3.11578 18.2417 
3.63157 3.12031 18.2417 
3.66204 3.12484 18.2417 
4.38806 3.23297 18.2417 
4.42077 3.23784 18.2417 
4.45358 3.24272 18.2417 
4.48648 3.24762 18.2417 
4.51949 3.25254 18.2417 
4.55259 3.25747 18.2417 
4.5858 3.26241 18.2417 
4.61911 3.26737 18.2417 
3.6012 3.12593 18.2417 
3.63157 3.13047 18.2417 
3.66204 3.13502 18.2417 
4.38806 3.2435 18.2417 
4.42077 3.24838 18.2417 
4.45358 3.25329 18.2417 
4.48648 3.2582 18.2417 
4.51949 3.26313 18.2417 
4.55259 3.26808 18.2417 
4.5858 3.27304 18.2417 
4.61911 3.27802 18.2417 
3.6012 3.13608 18.2417 
3.63157 3.14063 18.2417 
4.38806 3.25403 18.2417 
4.42077 3.25893 18.2417 
4.45358 3.26385 18.2417 
4.48648 3.26878 18.2417 
4.51949 3.27373 18.2417 
4.55259 3.27869 18.2417 
4.5858 3.28367 18.2417 
4.61911 3.28866 18.2417 
4.38806 3.26456 18.2417 
4.42077 3.26948 18.2417 
4.45358 3.27441 18.2417 
4.48648 3.27936 18.2417 
4.51949 3.28432 18.2417 
4.55259 3.2893 18.2417 
4.5858 3.29429 18.2417 
4.61911 3.2993 18.2417 
4.38806 3.27509 18.2417 
4.42077 3.28002 18.2417 
4.45358 3.28497 18.2417 
4.48648 3.28994 18.2417 
4.51949 3.29492 18.2417 
4.55259 3.29991 18.2417 
4.5858 3.30492 18.2417 
4.61911 3.30995 18.2417 
4.38806 3.28562 18.2417 
4.42077 3.29057 18.2417 
4.45358 3.29554 18.2417 
4.48648 3.30052 18.2417 
4.51949 3.30551 18.2417 
4.55259 3.31052 18.2417 
4.5858 3.31555 18.2417 
4.61911 3.32059 18.2417 
4.42077 3.30112 18.2417 
4.45358 3.3061 18.2417 
4.48648 3.3111 18.2417 
4.51949 3.31611 18.2417 
4.55259 3.32113 18.2417 
4.5858 3.32618 18.2417 
4.61911 3.33123 18.2417 
4.42077 3.31166 18.2417 
4.45358 3.31666 18.2417 
4.48648 3.32167 18.2417 
4.51949 3.3267 18.2417 
4.55259 3.33174 18.2417 
4.5858 3.3368 18.2417 
4.61911 3.34188 18.2417 
3.39099 3.16485 18.2417 
3.42076 3.1694 18.2417 
4.45358 3.32722 18.2417 
4.48648 3.33225 18.2417 
4.51949 3.3373 18.2417 
4.55259 3.34235 18.2417 
4.5858 3.34743 18.2417 
4.61911 3.35252 18.2417 
3.33171 3.16581 18.2417 
3.36131 3.17035 18.2417 
3.39099 3.1749 18.2417 
3.42076 3.17946 18.2417 
3.45062 3.18404 18.2417 
4.45358 3.33779 18.2417 
4.48648 3.34283 18.2417 
4.51949 3.34789 18.2417 
4.55259 3.35297 18.2417 
4.5858 3.35806 18.2417 
3.33171 3.17583 18.2417 
3.36131 3.18038 18.2417 
3.39099 3.18495 18.2417 
3.42076 3.18953 18.2417 
3.45062 3.19412 18.2417 
4.45358 3.34835 18.2417 
4.48648 3.35341 18.2417 
4.51949 3.35848 18.2417 
4.55259 3.36358 18.2417 
3.33171 3.18585 18.2417 
3.36131 3.19042 18.2417 
3.39099 3.195 18.2417 
3.42076 3.19959 18.2417 
4.45358 3.35891 18.2417 
4.48648 3.36399 18.2417 
4.51949 3.36908 18.2417 
4.55259 3.37419 18.2417 
3.33171 3.19587 18.2417 
3.36131 3.20045 18.2417 
3.39099 3.20504 18.2417 
3.42076 3.20965 18.2417 
4.45358 3.36947 18.2417 
4.48648 3.37457 18.2417 
4.51949 3.37967 18.2417 
4.55259 3.3848 18.2417 
3.33171 3.20589 18.2417 
3.36131 3.21048 18.2417 
3.39099 3.21509 18.2417 
3.33171 3.21591 18.2417 
5.78339 0 18.1615 
5.8204 0 18.1601 
6.08282 0 18.1503 
6.12079 0 18.1489 
9.36925 0 18.0273 
9.41866 0 18.0255 
5.78339 0.0112052 18.1615 
5.8204 0.0112231 18.1601 
6.08282 0.0113504 18.1503 
6.12079 0.011369 18.1489 
9.36925 0.0129459 18.0273 
9.41866 0.0129697 18.0255 
9.36925 0.0258918 18.0273 
9.41866 0.0259397 18.0255 
9.36925 0.0388374 18.0273 
9.41866 0.0389094 18.0255 
9.36925 0.0517833 18.0273 
9.41866 0.0518792 18.0255 
9.36925 0.0647292 18.0273 
9.41866 0.0648491 18.0255 
9.36925 0.0776751 18.0273 
9.41866 0.0778189 18.0255 
9.36925 0.0906208 18.0273 
9.41866 0.0907888 18.0255 
1.31419 0.858381 18.3287 
2.14232 1.5572 18.2977 
2.16856 1.55931 18.2968 
2.16856 1.56876 18.2968 
2.16856 1.57821 18.2968 
2.19488 1.58034 18.2958 
2.16856 1.58766 18.2968 
2.19488 1.5898 18.2958 
2.16856 1.59711 18.2968 
2.19488 1.59927 18.2958 
2.16856 1.60656 18.2968 
2.19488 1.60873 18.2958 
-0.12661 1.43382 18.3826 
-0.12661 1.44216 18.3826 
-0.147036 1.44877 18.3834 
-0.12661 1.45049 18.3826 
-0.147036 1.45709 18.3834 
-0.12661 1.45883 18.3826 
2.24773 1.66053 18.2938 
2.30087 1.71262 18.2918 
2.32754 1.71495 18.2908 
2.30087 1.72214 18.2918 
2.32754 1.73401 18.2908 
2.32754 1.74353 18.2908 
2.32754 1.75306 18.2908 
2.35429 1.75545 18.2898 
2.35429 1.76499 18.2898 
2.35429 1.77453 18.2898 
2.38112 1.77695 18.2888 
2.35429 1.78407 18.2898 
2.38112 1.78651 18.2888 
2.40801 1.78895 18.2878 
2.35429 1.79361 18.2898 
2.38112 1.79606 18.2888 
2.40801 1.79852 18.2878 
2.35429 1.80315 18.2898 
2.38112 1.80561 18.2888 
2.40801 1.80808 18.2878 
2.38112 1.81517 18.2888 
2.40801 1.81765 18.2878 
2.38112 1.82472 18.2888 
2.40801 1.82722 18.2878 
2.43498 1.82972 18.2868 
2.38112 1.83428 18.2888 
2.40801 1.83678 18.2878 
2.38112 1.84383 18.2888 
2.40801 1.84635 18.2878 
2.43498 1.84888 18.2868 
2.40801 1.85591 18.2878 
2.43498 1.85845 18.2868 
2.46202 1.861 18.2858 
2.40801 1.86548 18.2878 
2.43498 1.86803 18.2868 
2.46202 1.87059 18.2858 
2.48914 1.87316 18.2848 
2.40801 1.87505 18.2878 
2.43498 1.87761 18.2868 
2.46202 1.88019 18.2858 
2.48914 1.88277 18.2848 
2.40801 1.88461 18.2878 
2.43498 1.88719 18.2868 
2.46202 1.88978 18.2858 
2.48914 1.89237 18.2848 
2.40801 1.89418 18.2878 
2.43498 1.89677 18.2868 
2.46202 1.89937 18.2858 
2.48914 1.90198 18.2848 
2.40801 1.90375 18.2878 
2.43498 1.90635 18.2868 
2.46202 1.90897 18.2858 
2.48914 1.91159 18.2848 
2.43498 1.91593 18.2868 
2.46202 1.91856 18.2858 
2.48914 1.92119 18.2848 
2.68107 2.01742 18.2776 
2.70879 2.02022 18.2765 
2.73659 2.02302 18.2755 
2.76447 2.02584 18.2745 
2.70879 2.02993 18.2765 
2.73659 2.03275 18.2755 
2.76447 2.03558 18.2745 
2.79242 2.03841 18.2734 
2.76447 2.04532 18.2745 
2.79242 2.04817 18.2734 
2.82046 2.05103 18.2724 
2.76447 2.05506 18.2745 
2.79242 2.05792 18.2734 
2.82046 2.06079 18.2724 
2.84857 2.06367 18.2713 
2.87676 2.06656 18.2703 
2.90503 2.06945 18.2692 
2.82046 2.07056 18.2724 
2.84857 2.07345 18.2713 
2.87676 2.07635 18.2703 
2.90503 2.07926 18.2692 
2.93337 2.08218 18.2681 
2.87676 2.08615 18.2703 
2.90503 2.08907 18.2692 
2.93337 2.092 18.2681 
2.9618 2.09494 18.2671 
2.99031 2.09789 18.266 
3.0189 2.10084 18.2649 
2.90503 2.09888 18.2692 
2.93337 2.10182 18.2681 
2.9618 2.10478 18.2671 
2.99031 2.10774 18.266 
3.0189 2.11071 18.2649 
3.04757 2.11369 18.2639 
3.07632 2.11667 18.2628 
2.93337 2.11164 18.2681 
2.9618 2.11461 18.2671 
2.99031 2.11759 18.266 
3.0189 2.12057 18.2649 
3.04757 2.12356 18.2639 
3.07632 2.12656 18.2628 
3.10515 2.12957 18.2617 
2.99031 2.12744 18.266 
3.0189 2.13043 18.2649 
3.04757 2.13344 18.2639 
3.07632 2.13645 18.2628 
3.10515 2.13948 18.2617 
3.13406 2.14251 18.2606 
3.16305 2.14555 18.2595 
3.0189 2.1403 18.2649 
3.04757 2.14332 18.2639 
3.07632 2.14635 18.2628 
3.10515 2.14938 18.2617 
3.13406 2.15243 18.2606 
3.16305 2.15548 18.2595 
3.19213 2.15855 18.2585 
3.04757 2.15319 18.2639 
3.07632 2.15624 18.2628 
3.10515 2.15929 18.2617 
3.13406 2.16235 18.2606 
3.16305 2.16542 18.2595 
3.19213 2.16849 18.2585 
3.22129 2.17158 18.2574 
3.25053 2.17467 18.2563 
3.04757 2.16307 18.2639 
3.07632 2.16613 18.2628 
3.10515 2.16919 18.2617 
3.13406 2.17227 18.2606 
3.16305 2.17535 18.2595 
3.19213 2.17844 18.2585 
3.22129 2.18154 18.2574 
3.25053 2.18465 18.2563 
3.27986 2.18777 18.2552 
3.30927 2.19089 18.2541 
3.10515 2.1791 18.2617 
3.13406 2.18219 18.2606 
3.16305 2.18528 18.2595 
3.19213 2.18839 18.2585 
3.22129 2.1915 18.2574 
3.25053 2.19462 18.2563 
3.27986 2.19776 18.2552 
3.30927 2.2009 18.2541 
3.33877 2.20405 18.253 
3.10515 2.189 18.2617 
3.13406 2.1921 18.2606 
3.16305 2.19521 18.2595 
3.19213 2.19833 18.2585 
3.22129 2.20146 18.2574 
3.25053 2.2046 18.2563 
3.27986 2.20775 18.2552 
3.30927 2.2109 18.2541 
3.33877 2.21407 18.253 
3.36835 2.21724 18.2519 
3.16305 2.20515 18.2595 
3.19213 2.20828 18.2585 
3.22129 2.21142 18.2574 
3.25053 2.21458 18.2563 
3.27986 2.21774 18.2552 
3.30927 2.22091 18.2541 
3.33877 2.22408 18.253 
3.36835 2.22727 18.2519 
3.39801 2.23047 18.2508 
3.42776 2.23367 18.2496 
3.16305 2.21508 18.2595 
3.19213 2.21823 18.2585 
3.22129 2.22139 18.2574 
3.25053 2.22455 18.2563 
3.27986 2.22773 18.2552 
3.30927 2.23091 18.2541 
3.33877 2.2341 18.253 
3.36835 2.2373 18.2519 
3.39801 2.24052 18.2508 
3.42776 2.24374 18.2496 
3.22129 2.23135 18.2574 
3.25053 2.23453 18.2563 
3.27986 2.23772 18.2552 
3.30927 2.24091 18.2541 
3.33877 2.24412 18.253 
3.36835 2.24734 18.2519 
3.39801 2.25056 18.2508 
3.42776 2.2538 18.2496 
3.45759 2.25704 18.2485 
3.48751 2.2603 18.2474 
3.51752 2.26356 18.2463 
3.22129 2.24131 18.2574 
3.25053 2.2445 18.2563 
3.27986 2.24771 18.2552 
3.30927 2.25092 18.2541 
3.33877 2.25414 18.253 
3.36835 2.25737 18.2519 
3.39801 2.26061 18.2508 
3.42776 2.26386 18.2496 
3.45759 2.26712 18.2485 
3.48751 2.27039 18.2474 
3.51752 2.27366 18.2463 
3.22129 2.25127 18.2574 
3.25053 2.25448 18.2563 
3.27986 2.2577 18.2552 
3.30927 2.26092 18.2541 
3.33877 2.26416 18.253 
3.36835 2.2674 18.2519 
3.39801 2.27066 18.2508 
3.42776 2.27392 18.2496 
3.45759 2.27719 18.2485 
3.48751 2.28048 18.2474 
3.51752 2.28377 18.2463 
3.22129 2.26123 18.2574 
3.25053 2.26445 18.2563 
3.27986 2.26769 18.2552 
3.30927 2.27093 18.2541 
3.33877 2.27418 18.253 
3.36835 2.27744 18.2519 
3.39801 2.2807 18.2508 
3.42776 2.28398 18.2496 
3.45759 2.28727 18.2485 
3.48751 2.29057 18.2474 
3.51752 2.29387 18.2463 
3.54762 2.29719 18.2452 
3.25053 2.27443 18.2563 
3.27986 2.27767 18.2552 
3.30927 2.28093 18.2541 
3.33877 2.28419 18.253 
3.36835 2.28747 18.2519 
3.39801 2.29075 18.2508 
3.42776 2.29404 18.2496 
3.45759 2.29735 18.2485 
3.48751 2.30066 18.2474 
3.51752 2.30398 18.2463 
3.54762 2.30731 18.2452 
3.22129 2.28115 18.2574 
3.25053 2.2844 18.2563 
3.27986 2.28766 18.2552 
3.30927 2.29093 18.2541 
3.33877 2.29421 18.253 
3.36835 2.2975 18.2519 
3.39801 2.3008 18.2508 
3.42776 2.30411 18.2496 
3.45759 2.30742 18.2485 
3.48751 2.31075 18.2474 
3.51752 2.31408 18.2463 
3.54762 2.31743 18.2452 
3.5778 2.32079 18.244 
3.27986 2.29765 18.2552 
3.30927 2.30094 18.2541 
3.33877 2.30423 18.253 
3.36835 2.30753 18.2519 
3.39801 2.31085 18.2508 
3.42776 2.31417 18.2496 
3.45759 2.3175 18.2485 
3.48751 2.32084 18.2474 
3.51752 2.32419 18.2463 
3.54762 2.32755 18.2452 
3.5778 2.33092 18.244 
3.27986 2.30764 18.2552 
3.30927 2.31094 18.2541 
3.33877 2.31425 18.253 
3.36835 2.31757 18.2519 
3.39801 2.32089 18.2508 
3.42776 2.32423 18.2496 
3.45759 2.32757 18.2485 
3.48751 2.33093 18.2474 
3.51752 2.33429 18.2463 
3.54762 2.33767 18.2452 
3.5778 2.34105 18.244 
3.33877 2.32427 18.253 
3.36835 2.3276 18.2519 
3.39801 2.33094 18.2508 
3.42776 2.33429 18.2496 
3.45759 2.33765 18.2485 
3.48751 2.34102 18.2474 
3.51752 2.3444 18.2463 
3.54762 2.34779 18.2452 
3.5778 2.35119 18.244 
3.60806 2.3546 18.2429 
3.33877 2.33429 18.253 
3.36835 2.33763 18.2519 
3.39801 2.34099 18.2508 
3.42776 2.34435 18.2496 
3.45759 2.34773 18.2485 
3.48751 2.35111 18.2474 
3.51752 2.35451 18.2463 
3.54762 2.35791 18.2452 
3.5778 2.36132 18.244 
3.60806 2.36475 18.2429 
3.63842 2.36818 18.2418 
3.39801 2.35103 18.2508 
3.42776 2.35441 18.2496 
3.45759 2.3578 18.2485 
3.48751 2.3612 18.2474 
3.51752 2.36461 18.2463 
3.54762 2.36803 18.2452 
3.5778 2.37146 18.244 
3.60806 2.3749 18.2429 
3.63842 2.37834 18.2418 
3.66887 2.3818 18.2406 
3.39801 2.36108 18.2508 
3.42776 2.36448 18.2496 
3.45759 2.36788 18.2485 
3.48751 2.37129 18.2474 
3.51752 2.37472 18.2463 
3.54762 2.37815 18.2452 
3.5778 2.38159 18.244 
3.60806 2.38504 18.2429 
3.63842 2.38851 18.2418 
3.66887 2.39198 18.2406 
3.39801 2.37113 18.2508 
3.42776 2.37454 18.2496 
3.45759 2.37795 18.2485 
3.48751 2.38138 18.2474 
3.51752 2.38482 18.2463 
3.54762 2.38827 18.2452 
3.5778 2.39173 18.244 
3.60806 2.39519 18.2429 
3.63842 2.39867 18.2418 
3.66887 2.40216 18.2406 
3.42776 2.3846 18.2496 
3.45759 2.38803 18.2485 
3.48751 2.39147 18.2474 
3.51752 2.39493 18.2463 
3.54762 2.39839 18.2452 
3.5778 2.40186 18.244 
3.60806 2.40534 18.2429 
3.63842 2.40884 18.2418 
3.66887 2.41234 18.2406 
3.6994 2.41585 18.2395 
3.45759 2.39811 18.2485 
3.48751 2.40156 18.2474 
3.51752 2.40503 18.2463 
3.54762 2.40851 18.2452 
3.5778 2.41199 18.244 
3.60806 2.41549 18.2429 
3.63842 2.419 18.2418 
3.66887 2.42252 18.2406 
3.6994 2.42604 18.2395 
3.45759 2.40818 18.2485 
3.48751 2.41165 18.2474 
3.51752 2.41514 18.2463 
3.54762 2.41863 18.2452 
3.5778 2.42213 18.244 
3.60806 2.42564 18.2429 
3.63842 2.42916 18.2418 
3.66887 2.4327 18.2406 
3.6994 2.43624 18.2395 
7.44709 2.87105 18.0993 
0.914517 2.12198 18.3437 
3.51752 2.42524 18.2463 
3.54762 2.42875 18.2452 
3.5778 2.43226 18.244 
3.60806 2.43579 18.2429 
3.63842 2.43933 18.2418 
3.66887 2.44287 18.2406 
3.6994 2.44643 18.2395 
3.51752 2.43535 18.2463 
3.54762 2.43887 18.2452 
3.5778 2.4424 18.244 
3.60806 2.44594 18.2429 
3.63842 2.44949 18.2418 
3.66887 2.45305 18.2406 
3.6994 2.45662 18.2395 
3.73002 2.46021 18.2383 
3.51752 2.44545 18.2463 
3.54762 2.44899 18.2452 
3.5778 2.45253 18.244 
3.60806 2.45609 18.2429 
3.63842 2.45965 18.2418 
3.66887 2.46323 18.2406 
3.6994 2.46682 18.2395 
3.73002 2.47042 18.2383 
3.51752 2.45556 18.2463 
3.54762 2.45911 18.2452 
3.5778 2.46267 18.244 
3.60806 2.46624 18.2429 
3.63842 2.46982 18.2418 
3.66887 2.47341 18.2406 
3.6994 2.47701 18.2395 
3.73002 2.48062 18.2383 
3.51752 2.46566 18.2463 
3.54762 2.46923 18.2452 
3.5778 2.4728 18.244 
3.60806 2.47639 18.2429 
3.63842 2.47998 18.2418 
3.66887 2.48359 18.2406 
3.6994 2.48721 18.2395 
3.73002 2.49083 18.2383 
3.51752 2.47577 18.2463 
3.54762 2.47935 18.2452 
3.5778 2.48294 18.244 
3.60806 2.48654 18.2429 
3.63842 2.49015 18.2418 
3.66887 2.49377 18.2406 
3.6994 2.4974 18.2395 
3.73002 2.50104 18.2383 
3.51752 2.48587 18.2463 
3.54762 2.48947 18.2452 
3.5778 2.49307 18.244 
3.60806 2.49669 18.2429 
3.63842 2.50031 18.2418 
3.66887 2.50395 18.2406 
3.6994 2.50759 18.2395 
3.73002 2.51125 18.2383 
3.76074 2.51492 18.2372 
3.51752 2.49598 18.2463 
3.54762 2.49959 18.2452 
3.5778 2.5032 18.244 
3.60806 2.50683 18.2429 
3.63842 2.51047 18.2418 
3.66887 2.51412 18.2406 
3.6994 2.51779 18.2395 
3.73002 2.52146 18.2383 
3.76074 2.52514 18.2372 
3.51752 2.50608 18.2463 
3.54762 2.50971 18.2452 
3.5778 2.51334 18.244 
3.60806 2.51698 18.2429 
3.63842 2.52064 18.2418 
3.66887 2.5243 18.2406 
3.6994 2.52798 18.2395 
3.73002 2.53167 18.2383 
3.76074 2.53536 18.2372 
3.51752 2.51619 18.2463 
3.54762 2.51983 18.2452 
3.5778 2.52347 18.244 
3.60806 2.52713 18.2429 
3.63842 2.5308 18.2418 
3.66887 2.53448 18.2406 
3.6994 2.53817 18.2395 
3.73002 2.54187 18.2383 
3.76074 2.54559 18.2372 
3.79154 2.54931 18.236 
3.51752 2.52629 18.2463 
3.54762 2.52995 18.2452 
3.5778 2.53361 18.244 
3.60806 2.53728 18.2429 
3.63842 2.54097 18.2418 
3.66887 2.54466 18.2406 
3.6994 2.54837 18.2395 
3.73002 2.55208 18.2383 
3.76074 2.55581 18.2372 
3.79154 2.55955 18.236 
3.51752 2.5364 18.2463 
3.54762 2.54007 18.2452 
3.5778 2.54374 18.244 
3.60806 2.54743 18.2429 
3.63842 2.55113 18.2418 
3.66887 2.55484 18.2406 
3.6994 2.55856 18.2395 
3.73002 2.56229 18.2383 
3.76074 2.56603 18.2372 
3.79154 2.56979 18.236 
3.51752 2.5465 18.2463 
3.54762 2.55018 18.2452 
3.5778 2.55388 18.244 
3.60806 2.55758 18.2429 
3.63842 2.56129 18.2418 
3.66887 2.56502 18.2406 
3.6994 2.56875 18.2395 
3.73002 2.5725 18.2383 
3.76074 2.57626 18.2372 
3.79154 2.58002 18.236 
3.51752 2.55661 18.2463 
3.54762 2.5603 18.2452 
3.5778 2.56401 18.244 
3.60806 2.56773 18.2429 
3.63842 2.57146 18.2418 
3.66887 2.5752 18.2406 
3.6994 2.57895 18.2395 
3.73002 2.58271 18.2383 
3.76074 2.58648 18.2372 
3.79154 2.59026 18.236 
3.51752 2.56671 18.2463 
3.54762 2.57042 18.2452 
3.5778 2.57415 18.244 
3.60806 2.57788 18.2429 
3.63842 2.58162 18.2418 
3.66887 2.58537 18.2406 
3.6994 2.58914 18.2395 
3.73002 2.59292 18.2383 
3.76074 2.5967 18.2372 
3.79154 2.6005 18.236 
3.51752 2.57682 18.2463 
3.54762 2.58054 18.2452 
3.5778 2.58428 18.244 
3.60806 2.58803 18.2429 
3.63842 2.59178 18.2418 
3.66887 2.59555 18.2406 
3.6994 2.59933 18.2395 
3.73002 2.60312 18.2383 
3.76074 2.60693 18.2372 
3.79154 2.61074 18.236 
3.5778 2.59441 18.244 
3.60806 2.59818 18.2429 
3.63842 2.60195 18.2418 
3.66887 2.60573 18.2406 
3.6994 2.60953 18.2395 
3.73002 2.61333 18.2383 
3.76074 2.61715 18.2372 
3.79154 2.62098 18.236 
3.5778 2.60455 18.244 
3.60806 2.60833 18.2429 
3.63842 2.61211 18.2418 
3.66887 2.61591 18.2406 
3.6994 2.61972 18.2395 
3.73002 2.62354 18.2383 
3.76074 2.62737 18.2372 
3.79154 2.63121 18.236 
3.5778 2.61468 18.244 
3.60806 2.61847 18.2429 
3.63842 2.62228 18.2418 
3.66887 2.62609 18.2406 
3.6994 2.62991 18.2395 
3.73002 2.63375 18.2383 
3.76074 2.6376 18.2372 
3.79154 2.64145 18.236 
3.82243 2.64532 18.2349 
3.5778 2.62482 18.244 
3.60806 2.62862 18.2429 
3.63842 2.63244 18.2418 
3.66887 2.63627 18.2406 
3.6994 2.64011 18.2395 
3.73002 2.64396 18.2383 
3.76074 2.64782 18.2372 
3.79154 2.65169 18.236 
3.82243 2.65558 18.2349 
3.5778 2.63495 18.244 
3.60806 2.63877 18.2429 
3.63842 2.6426 18.2418 
3.66887 2.64645 18.2406 
3.6994 2.6503 18.2395 
3.73002 2.65417 18.2383 
3.76074 2.65804 18.2372 
3.79154 2.66193 18.236 
3.82243 2.66583 18.2349 
3.5778 2.64509 18.244 
3.60806 2.64892 18.2429 
3.63842 2.65277 18.2418 
3.66887 2.65663 18.2406 
3.6994 2.66049 18.2395 
3.73002 2.66437 18.2383 
3.76074 2.66827 18.2372 
3.79154 2.67217 18.236 
3.82243 2.67608 18.2349 
3.63842 2.66293 18.2418 
3.66887 2.6668 18.2406 
3.6994 2.67069 18.2395 
3.73002 2.67458 18.2383 
3.76074 2.67849 18.2372 
3.79154 2.68241 18.236 
3.82243 2.68633 18.2349 
3.63842 2.6731 18.2418 
3.66887 2.67698 18.2406 
3.6994 2.68088 18.2395 
3.73002 2.68479 18.2383 
3.76074 2.68871 18.2372 
3.79154 2.69264 18.236 
3.82243 2.69659 18.2349 
3.63842 2.68326 18.2418 
3.66887 2.68716 18.2406 
3.6994 2.69107 18.2395 
3.73002 2.695 18.2383 
3.76074 2.69893 18.2372 
3.79154 2.70288 18.236 
3.82243 2.70684 18.2349 
3.85341 2.71081 18.2337 
3.63842 2.69342 18.2418 
3.66887 2.69734 18.2406 
3.6994 2.70127 18.2395 
3.73002 2.70521 18.2383 
3.76074 2.70916 18.2372 
3.79154 2.71312 18.236 
3.82243 2.71709 18.2349 
3.85341 2.72108 18.2337 
3.63842 2.70359 18.2418 
3.66887 2.70752 18.2406 
3.6994 2.71146 18.2395 
3.73002 2.71542 18.2383 
3.76074 2.71938 18.2372 
3.79154 2.72336 18.236 
3.82243 2.72735 18.2349 
3.85341 2.73135 18.2337 
3.63842 2.71375 18.2418 
3.66887 2.7177 18.2406 
3.6994 2.72165 18.2395 
3.73002 2.72562 18.2383 
3.76074 2.7296 18.2372 
3.79154 2.7336 18.236 
3.82243 2.7376 18.2349 
3.85341 2.74162 18.2337 
3.63842 2.72392 18.2418 
3.66887 2.72788 18.2406 
3.6994 2.73185 18.2395 
3.73002 2.73583 18.2383 
3.76074 2.73983 18.2372 
3.79154 2.74383 18.236 
3.82243 2.74785 18.2349 
3.85341 2.75188 18.2337 
3.63842 2.73408 18.2418 
3.66887 2.73805 18.2406 
3.6994 2.74204 18.2395 
3.73002 2.74604 18.2383 
3.76074 2.75005 18.2372 
3.79154 2.75407 18.236 
3.82243 2.75811 18.2349 
3.85341 2.76215 18.2337 
3.63842 2.74424 18.2418 
3.66887 2.74823 18.2406 
3.6994 2.75224 18.2395 
3.73002 2.75625 18.2383 
3.76074 2.76027 18.2372 
3.79154 2.76431 18.236 
3.82243 2.76836 18.2349 
3.85341 2.77242 18.2337 
3.63842 2.75441 18.2418 
3.66887 2.75841 18.2406 
3.6994 2.76243 18.2395 
3.73002 2.76646 18.2383 
3.76074 2.7705 18.2372 
3.79154 2.77455 18.236 
3.82243 2.77861 18.2349 
3.63842 2.76457 18.2418 
3.66887 2.76859 18.2406 
3.6994 2.77262 18.2395 
3.73002 2.77667 18.2383 
3.76074 2.78072 18.2372 
3.79154 2.78479 18.236 
3.82243 2.78887 18.2349 
3.85341 2.79296 18.2337 
3.63842 2.77473 18.2418 
3.66887 2.77877 18.2406 
3.6994 2.78282 18.2395 
3.73002 2.78687 18.2383 
3.76074 2.79094 18.2372 
3.79154 2.79503 18.236 
3.82243 2.79912 18.2349 
3.85341 2.80323 18.2337 
3.66887 2.78895 18.2406 
3.6994 2.79301 18.2395 
3.73002 2.79708 18.2383 
3.76074 2.80117 18.2372 
3.79154 2.80526 18.236 
3.82243 2.80937 18.2349 
3.85341 2.81349 18.2337 
3.6994 2.8032 18.2395 
3.73002 2.80729 18.2383 
3.76074 2.81139 18.2372 
3.79154 2.8155 18.236 
3.82243 2.81963 18.2349 
3.85341 2.82376 18.2337 
3.6994 2.8134 18.2395 
3.73002 2.8175 18.2383 
3.76074 2.82161 18.2372 
3.79154 2.82574 18.236 
3.82243 2.82988 18.2349 
3.85341 2.83403 18.2337 
3.6994 2.82359 18.2395 
3.73002 2.82771 18.2383 
3.76074 2.83184 18.2372 
3.79154 2.83598 18.236 
3.82243 2.84013 18.2349 
3.6994 2.83378 18.2395 
3.73002 2.83792 18.2383 
3.76074 2.84206 18.2372 
3.79154 2.84622 18.236 
3.82243 2.85039 18.2349 
3.66887 2.83984 18.2406 
3.6994 2.84398 18.2395 
3.73002 2.84812 18.2383 
3.76074 2.85228 18.2372 
3.79154 2.85646 18.236 
3.82243 2.86064 18.2349 
3.85341 2.86484 18.2337 
3.63842 2.84588 18.2418 
3.66887 2.85002 18.2406 
3.6994 2.85417 18.2395 
3.73002 2.85833 18.2383 
3.76074 2.86251 18.2372 
3.79154 2.86669 18.236 
3.82243 2.87089 18.2349 
3.63842 2.85605 18.2418 
3.66887 2.8602 18.2406 
3.6994 2.86436 18.2395 
3.73002 2.86854 18.2383 
3.76074 2.87273 18.2372 
3.79154 2.87693 18.236 
3.82243 2.88115 18.2349 
3.63842 2.86621 18.2418 
3.66887 2.87038 18.2406 
3.6994 2.87456 18.2395 
3.73002 2.87875 18.2383 
3.76074 2.88295 18.2372 
3.79154 2.88717 18.236 
3.82243 2.8914 18.2349 
3.63842 2.87637 18.2418 
3.66887 2.88056 18.2406 
