VERSION .7
FIELDS x y z
SIZE 4 4 4
TYPE F F F
COUNT 1 1 1
WIDTH 1941
HEIGHT 1
VIEWPOINT 0 0 0 1 0 0 0
POINTS 1941
DATA ascii
1.89329 2.37121 15.5828 
1.87562 2.37358 15.5749 
1.96364 2.36874 15.6141 
1.94611 2.3711 15.6063 
1.92854 2.37346 15.5985 
1.91093 2.37583 15.5907 
1.89329 2.37821 15.5828 
1.87562 2.38059 15.5749 
1.96364 2.37571 15.6141 
1.94611 2.37807 15.6063 
1.92854 2.38044 15.5985 
1.91093 2.38282 15.5907 
1.89329 2.3852 15.5828 
1.87562 2.38759 15.5749 
1.96364 2.38267 15.6141 
1.94611 2.38505 15.6063 
1.92854 2.38743 15.5985 
1.91093 2.38981 15.5907 
1.89329 2.3922 15.5828 
1.87562 2.39459 15.5749 
1.96364 2.38964 15.6141 
1.94611 2.39202 15.6063 
1.92854 2.39441 15.5985 
1.91093 2.3968 15.5907 
1.89329 2.39919 15.5828 
1.87562 2.40159 15.5749 
1.85791 2.404 15.567 
1.96364 2.39661 15.6141 
1.94611 2.39899 15.6063 
1.92854 2.40139 15.5985 
1.91093 2.40378 15.5907 
1.89329 2.40619 15.5828 
1.87562 2.40859 15.5749 
1.85791 2.411 15.567 
1.96364 2.40357 15.6141 
1.94611 2.40597 15.6063 
1.92854 2.40837 15.5985 
1.91093 2.41077 15.5907 
1.89329 2.41318 15.5828 
1.87562 2.41559 15.5749 
1.85791 2.41801 15.567 
1.96364 2.41054 15.6141 
1.94611 2.41294 15.6063 
1.92854 2.41535 15.5985 
1.91093 2.41776 15.5907 
1.89329 2.42018 15.5828 
1.87562 2.4226 15.5749 
1.85791 2.42502 15.567 
1.96364 2.41751 15.6141 
1.94611 2.41992 15.6063 
1.92854 2.42233 15.5985 
1.91093 2.42475 15.5907 
1.89329 2.42717 15.5828 
1.87562 2.4296 15.5749 
1.85791 2.43203 15.567 
1.96364 2.42447 15.6141 
1.94611 2.42689 15.6063 
1.92854 2.42931 15.5985 
1.91093 2.43174 15.5907 
1.89329 2.43417 15.5828 
1.87562 2.4366 15.5749 
1.85791 2.43904 15.567 
1.96364 2.43144 15.6141 
1.94611 2.43386 15.6063 
1.92854 2.43629 15.5985 
1.91093 2.43872 15.5907 
1.89329 2.44116 15.5828 
1.87562 2.4436 15.5749 
1.85791 2.44605 15.567 
1.94611 2.44084 15.6063 
1.92854 2.44327 15.5985 
1.91093 2.44571 15.5907 
1.89329 2.44815 15.5828 
1.87562 2.4506 15.5749 
1.85791 2.45306 15.567 
1.96364 2.44537 15.6141 
1.94611 2.44781 15.6063 
1.92854 2.45025 15.5985 
1.91093 2.4527 15.5907 
1.89329 2.45515 15.5828 
1.87562 2.4576 15.5749 
1.85791 2.46007 15.567 
1.96364 2.45234 15.6141 
1.94611 2.45478 15.6063 
1.92854 2.45723 15.5985 
1.91093 2.45969 15.5907 
1.89329 2.46214 15.5828 
1.87562 2.46461 15.5749 
1.85791 2.46707 15.567 
1.96364 2.45931 15.6141 
1.94611 2.46176 15.6063 
1.92854 2.46421 15.5985 
1.91093 2.46667 15.5907 
1.89329 2.46914 15.5828 
1.87562 2.47161 15.5749 
1.85791 2.47408 15.567 
1.96364 2.46628 15.6141 
1.94611 2.46873 15.6063 
1.92854 2.47119 15.5985 
1.91093 2.47366 15.5907 
1.89329 2.47613 15.5828 
1.87562 2.47861 15.5749 
1.96364 2.47324 15.6141 
1.94611 2.47571 15.6063 
1.92854 2.47818 15.5985 
1.91093 2.48065 15.5907 
1.89329 2.48313 15.5828 
1.87562 2.48561 15.5749 
1.96364 2.48021 15.6141 
1.94611 2.48268 15.6063 
1.92854 2.48516 15.5985 
1.91093 2.48764 15.5907 
1.89329 2.49012 15.5828 
1.87562 2.49261 15.5749 
1.96364 2.48718 15.6141 
1.94611 2.48965 15.6063 
1.92854 2.49214 15.5985 
1.91093 2.49462 15.5907 
1.89329 2.49712 15.5828 
1.87562 2.49962 15.5749 
1.96364 2.49414 15.6141 
1.94611 2.49663 15.6063 
1.92854 2.49912 15.5985 
1.91093 2.50161 15.5907 
1.89329 2.50411 15.5828 
1.87562 2.50662 15.5749 
1.96364 2.50111 15.6141 
1.94611 2.5036 15.6063 
1.92854 2.5061 15.5985 
1.91093 2.5086 15.5907 
1.89329 2.51111 15.5828 
1.87562 2.51362 15.5749 
1.96364 2.50808 15.6141 
1.94611 2.51058 15.6063 
1.92854 2.51308 15.5985 
1.91093 2.51559 15.5907 
1.89329 2.5181 15.5828 
1.87562 2.52062 15.5749 
1.96364 2.51504 15.6141 
1.94611 2.51755 15.6063 
1.92854 2.52006 15.5985 
1.91093 2.52258 15.5907 
1.89329 2.5251 15.5828 
1.87562 2.52762 15.5749 
1.96364 2.52201 15.6141 
1.94611 2.52452 15.6063 
1.92854 2.52704 15.5985 
1.91093 2.52956 15.5907 
1.89329 2.53209 15.5828 
1.87562 2.53462 15.5749 
1.96364 2.52898 15.6141 
1.94611 2.5315 15.6063 
1.92854 2.53402 15.5985 
1.91093 2.53655 15.5907 
1.89329 2.53909 15.5828 
1.96364 2.53594 15.6141 
1.94611 2.53847 15.6063 
1.92854 2.541 15.5985 
1.91093 2.54354 15.5907 
1.89329 2.54608 15.5828 
1.96364 2.54291 15.6141 
1.94611 2.54544 15.6063 
1.92854 2.54798 15.5985 
1.91093 2.55053 15.5907 
1.89329 2.55308 15.5828 
1.98114 2.54734 15.6219 
1.96364 2.54988 15.6141 
1.94611 2.55242 15.6063 
1.92854 2.55496 15.5985 
1.91093 2.55751 15.5907 
1.98114 2.5543 15.6219 
1.96364 2.55684 15.6141 
1.94611 2.55939 15.6063 
1.92854 2.56194 15.5985 
1.91093 2.5645 15.5907 
1.99861 2.55872 15.6297 
1.98114 2.56126 15.6219 
1.96364 2.56381 15.6141 
1.94611 2.56637 15.6063 
1.99861 2.56567 15.6297 
1.98114 2.56822 15.6219 
1.96364 2.57078 15.6141 
1.94611 2.57334 15.6063 
1.98114 2.57518 15.6219 
1.96364 2.57775 15.6141 
1.94611 2.58031 15.6063 
1.98114 2.58214 15.6219 
1.96364 2.58471 15.6141 
1.98114 2.5891 15.6219 
2.0508 2.58578 15.6529 
1.99861 2.59348 15.6297 
1.98114 2.59606 15.6219 
2.0508 2.59271 15.6529 
2.0508 2.59964 15.6529 
2.03344 2.60222 15.6452 
2.1371 2.59373 15.6914 
2.11991 2.59629 15.6837 
2.10268 2.59885 15.676 
2.0508 2.60658 15.6529 
2.03344 2.60916 15.6452 
2.1371 2.60063 15.6914 
2.11991 2.6032 15.6837 
2.10268 2.60577 15.676 
2.0508 2.61351 15.6529 
2.03344 2.6161 15.6452 
2.1371 2.60753 15.6914 
2.11991 2.6101 15.6837 
2.10268 2.61268 15.676 
2.08542 2.61526 15.6683 
2.03344 2.62304 15.6452 
2.1371 2.61443 15.6914 
2.11991 2.61701 15.6837 
2.10268 2.61959 15.676 
2.08542 2.62218 15.6683 
2.03344 2.62998 15.6452 
2.1371 2.62133 15.6914 
2.11991 2.62391 15.6837 
2.10268 2.6265 15.676 
2.08542 2.6291 15.6683 
2.06813 2.6317 15.6606 
2.0508 2.63431 15.6529 
2.1371 2.62822 15.6914 
2.11991 2.63082 15.6837 
2.10268 2.63341 15.676 
2.08542 2.63602 15.6683 
2.06813 2.63862 15.6606 
2.0508 2.64124 15.6529 
2.1371 2.63512 15.6914 
2.11991 2.63772 15.6837 
2.10268 2.64033 15.676 
2.08542 2.64294 15.6683 
2.06813 2.64555 15.6606 
2.0508 2.64817 15.6529 
2.1371 2.64202 15.6914 
2.11991 2.64463 15.6837 
2.10268 2.64724 15.676 
2.08542 2.64985 15.6683 
2.06813 2.65248 15.6606 
2.0508 2.6551 15.6529 
2.1371 2.64892 15.6914 
2.11991 2.65153 15.6837 
2.10268 2.65415 15.676 
2.08542 2.65677 15.6683 
2.06813 2.6594 15.6606 
2.0508 2.66203 15.6529 
2.03344 2.66467 15.6452 
2.1371 2.65582 15.6914 
2.11991 2.65844 15.6837 
2.10268 2.66106 15.676 
2.08542 2.66369 15.6683 
2.06813 2.66633 15.6606 
2.0508 2.66897 15.6529 
2.03344 2.67161 15.6452 
2.11991 2.66534 15.6837 
2.10268 2.66797 15.676 
2.08542 2.67061 15.6683 
2.06813 2.67325 15.6606 
2.0508 2.6759 15.6529 
2.03344 2.67855 15.6452 
2.01604 2.68121 15.6375 
2.11991 2.67225 15.6837 
2.10268 2.67488 15.676 
2.08542 2.67753 15.6683 
2.06813 2.68018 15.6606 
2.0508 2.68283 15.6529 
2.03344 2.68549 15.6452 
2.01604 2.68816 15.6375 
2.11991 2.67915 15.6837 
2.10268 2.6818 15.676 
2.08542 2.68445 15.6683 
2.06813 2.6871 15.6606 
2.0508 2.68976 15.6529 
2.03344 2.69243 15.6452 
2.01604 2.6951 15.6375 
1.99861 2.69778 15.6297 
2.11991 2.68606 15.6837 
2.10268 2.68871 15.676 
2.08542 2.69137 15.6683 
2.06813 2.69403 15.6606 
2.0508 2.6967 15.6529 
2.03344 2.69937 15.6452 
2.01604 2.70205 15.6375 
1.99861 2.70473 15.6297 
2.10268 2.69562 15.676 
2.08542 2.69828 15.6683 
2.06813 2.70095 15.6606 
2.0508 2.70363 15.6529 
2.03344 2.70631 15.6452 
2.01604 2.70899 15.6375 
1.99861 2.71169 15.6297 
1.98114 2.71438 15.6219 
2.10268 2.70253 15.676 
2.08542 2.7052 15.6683 
2.06813 2.70788 15.6606 
2.0508 2.71056 15.6529 
2.03344 2.71325 15.6452 
2.01604 2.71594 15.6375 
1.99861 2.71864 15.6297 
1.98114 2.72134 15.6219 
2.08542 2.71212 15.6683 
2.06813 2.71481 15.6606 
2.0508 2.71749 15.6529 
2.03344 2.72019 15.6452 
2.01604 2.72289 15.6375 
1.99861 2.72559 15.6297 
2.08542 2.71904 15.6683 
2.06813 2.72173 15.6606 
2.0508 2.72443 15.6529 
2.03344 2.72713 15.6452 
2.01604 2.72983 15.6375 
2.10268 2.73018 15.676 
2.08542 2.73288 15.6683 
2.44875 2.0382 15.8348 
2.4319 2.04018 15.8281 
2.46558 2.043 15.8414 
2.44875 2.04497 15.8348 
2.4319 2.04695 15.8281 
2.415 2.04894 15.8214 
2.44875 2.05175 15.8348 
2.4319 2.05373 15.8281 
2.415 2.05572 15.8214 
2.44875 2.05852 15.8348 
2.4319 2.06051 15.8281 
2.415 2.06251 15.8214 
2.39808 2.06451 15.8147 
2.38112 2.06651 15.808 
2.36413 2.06852 15.8013 
2.4319 2.06729 15.8281 
2.415 2.06929 15.8214 
2.39808 2.0713 15.8147 
2.38112 2.07331 15.808 
2.36413 2.07533 15.8013 
2.4319 2.07407 15.8281 
2.415 2.07608 15.8214 
2.39808 2.07809 15.8147 
2.38112 2.08011 15.808 
2.36413 2.08213 15.8013 
2.415 2.08286 15.8214 
2.39808 2.08488 15.8147 
2.38112 2.08691 15.808 
2.36413 2.08893 15.8013 
2.34711 2.09097 15.7945 
2.33005 2.09982 15.7878 
2.31296 2.10187 15.781 
2.29584 2.10392 15.7742 
2.27868 2.10597 15.7674 
2.29584 2.11075 15.7742 
2.27868 2.11281 15.7674 
2.26149 2.11488 15.7606 
2.24427 2.11695 15.7538 
2.24427 2.1238 15.7538 
2.22701 2.12588 15.747 
2.22701 2.13274 15.747 
2.20972 2.13483 15.7401 
2.19239 2.13692 15.7333 
2.19239 2.1438 15.7333 
2.17503 2.1459 15.7264 
2.15764 2.14801 15.7195 
2.14021 2.15013 15.7126 
2.17503 2.15278 15.7264 
2.15764 2.1549 15.7195 
2.14021 2.15702 15.7126 
2.15764 2.16178 15.7195 
2.14021 2.16391 15.7126 
2.12275 2.16604 15.7057 
2.10525 2.16818 15.6988 
2.15764 2.16867 15.7195 
2.14021 2.1708 15.7126 
2.12275 2.17294 15.7057 
2.10525 2.17508 15.6988 
2.08772 2.17723 15.6918 
2.10525 2.18199 15.6988 
2.08772 2.18414 15.6918 
2.07015 2.1863 15.6849 
2.08772 2.19106 15.6918 
2.07015 2.19322 15.6849 
2.05255 2.19539 15.6779 
2.12275 2.19364 15.7057 
2.10525 2.1958 15.6988 
2.07015 2.20014 15.6849 
2.05255 2.20232 15.6779 
2.03492 2.2045 15.6709 
2.10525 2.2027 15.6988 
2.07015 2.20706 15.6849 
2.05255 2.20924 15.6779 
2.03492 2.21143 15.6709 
2.05255 2.21617 15.6779 
2.03492 2.21836 15.6709 
2.01725 2.22056 15.6639 
1.99954 2.22276 15.6569 
2.05255 2.22309 15.6779 
2.03492 2.22529 15.6709 
2.01725 2.2275 15.6639 
1.99954 2.22971 15.6569 
1.9818 2.23193 15.6499 
2.05255 2.23002 15.6779 
2.03492 2.23223 15.6709 
2.01725 2.23444 15.6639 
1.99954 2.23666 15.6569 
1.9818 2.23888 15.6499 
1.96402 2.2411 15.6429 
2.05255 2.23694 15.6779 
2.03492 2.23916 15.6709 
2.01725 2.24138 15.6639 
1.99954 2.2436 15.6569 
1.9818 2.24583 15.6499 
1.96402 2.24806 15.6429 
2.01725 2.24832 15.6639 
1.99954 2.25055 15.6569 
1.9818 2.25278 15.6499 
1.96402 2.25502 15.6429 
1.94621 2.25727 15.6358 
2.01725 2.25526 15.6639 
1.99954 2.2575 15.6569 
1.9818 2.25974 15.6499 
1.96402 2.26198 15.6429 
1.94621 2.26424 15.6358 
2.01725 2.2622 15.6639 
1.99954 2.26444 15.6569 
1.9818 2.26669 15.6499 
1.96402 2.26894 15.6429 
1.94621 2.2712 15.6358 
1.92837 2.27347 15.6287 
2.01725 2.26914 15.6639 
1.99954 2.27139 15.6569 
1.9818 2.27364 15.6499 
1.96402 2.2759 15.6429 
1.94621 2.27817 15.6358 
1.92837 2.28044 15.6287 
1.99954 2.27833 15.6569 
1.9818 2.2806 15.6499 
1.96402 2.28286 15.6429 
1.94621 2.28514 15.6358 
1.92837 2.28741 15.6287 
1.91048 2.28969 15.6217 
1.9818 2.28755 15.6499 
1.96402 2.28982 15.6429 
1.94621 2.2921 15.6358 
1.92837 2.29439 15.6287 
1.91048 2.29668 15.6217 
1.89256 2.29897 15.6146 
1.9818 2.2945 15.6499 
1.96402 2.29678 15.6429 
1.94621 2.29907 15.6358 
1.92837 2.30136 15.6287 
1.91048 2.30366 15.6217 
1.89256 2.30596 15.6146 
1.9818 2.30146 15.6499 
1.96402 2.30374 15.6429 
1.94621 2.30604 15.6358 
1.92837 2.30833 15.6287 
1.91048 2.31064 15.6217 
1.89256 2.31294 15.6146 
1.9818 2.30841 15.6499 
1.96402 2.3107 15.6429 
1.94621 2.313 15.6358 
1.92837 2.31531 15.6287 
1.91048 2.31762 15.6217 
1.89256 2.31993 15.6146 
1.87461 2.32225 15.6075 
1.9818 2.31536 15.6499 
1.96402 2.31766 15.6429 
1.94621 2.31997 15.6358 
1.92837 2.32228 15.6287 
1.91048 2.3246 15.6217 
1.89256 2.32692 15.6146 
1.87461 2.32924 15.6075 
1.94621 2.32694 15.6358 
1.92837 2.32926 15.6287 
1.91048 2.33158 15.6217 
1.89256 2.33391 15.6146 
1.87461 2.33624 15.6075 
1.85662 2.33858 15.6003 
1.94621 2.3339 15.6358 
1.92837 2.33623 15.6287 
1.91048 2.33856 15.6217 
1.89256 2.34089 15.6146 
1.87461 2.34323 15.6075 
1.85662 2.34558 15.6003 
1.92837 2.3432 15.6287 
1.91048 2.34554 15.6217 
1.89256 2.34788 15.6146 
1.87461 2.35023 15.6075 
1.85662 2.35258 15.6003 
1.92837 2.35018 15.6287 
1.91048 2.35252 15.6217 
1.89256 2.35487 15.6146 
1.87461 2.35722 15.6075 
1.85662 2.35958 15.6003 
1.92837 2.35715 15.6287 
1.91048 2.3595 15.6217 
1.89256 2.36186 15.6146 
1.87461 2.36422 15.6075 
1.85662 2.36658 15.6003 
1.91048 2.36648 15.6217 
1.89256 2.36885 15.6146 
1.87461 2.37121 15.6075 
1.85662 2.37358 15.6003 
1.91048 2.37346 15.6217 
1.89256 2.37583 15.6146 
1.87461 2.37821 15.6075 
1.85662 2.38059 15.6003 
1.83859 2.38297 15.5932 
1.91048 2.38044 15.6217 
1.89256 2.38282 15.6146 
1.87461 2.3852 15.6075 
1.85662 2.38759 15.6003 
1.83859 2.38998 15.5932 
1.91048 2.38743 15.6217 
1.89256 2.38981 15.6146 
1.87461 2.3922 15.6075 
1.85662 2.39459 15.6003 
1.83859 2.39699 15.5932 
1.91048 2.39441 15.6217 
1.89256 2.3968 15.6146 
1.87461 2.39919 15.6075 
1.85662 2.40159 15.6003 
1.83859 2.404 15.5932 
1.91048 2.40139 15.6217 
1.89256 2.40378 15.6146 
1.87461 2.40619 15.6075 
1.85662 2.40859 15.6003 
1.83859 2.411 15.5932 
1.82053 2.41342 15.5861 
1.91048 2.40837 15.6217 
1.89256 2.41077 15.6146 
1.87461 2.41318 15.6075 
1.85662 2.41559 15.6003 
1.83859 2.41801 15.5932 
1.82053 2.42044 15.5861 
1.91048 2.41535 15.6217 
1.89256 2.41776 15.6146 
1.87461 2.42018 15.6075 
1.85662 2.4226 15.6003 
1.83859 2.42502 15.5932 
1.82053 2.42745 15.5861 
1.91048 2.42233 15.6217 
1.89256 2.42475 15.6146 
1.87461 2.42717 15.6075 
1.85662 2.4296 15.6003 
1.83859 2.43203 15.5932 
1.82053 2.43447 15.5861 
1.91048 2.42931 15.6217 
1.89256 2.43174 15.6146 
1.87461 2.43417 15.6075 
1.85662 2.4366 15.6003 
1.83859 2.43904 15.5932 
1.82053 2.44148 15.5861 
1.91048 2.43629 15.6217 
1.89256 2.43872 15.6146 
1.87461 2.44116 15.6075 
1.85662 2.4436 15.6003 
1.83859 2.44605 15.5932 
1.82053 2.4485 15.5861 
1.91048 2.44327 15.6217 
1.89256 2.44571 15.6146 
1.87461 2.44815 15.6075 
1.85662 2.4506 15.6003 
1.83859 2.45306 15.5932 
1.82053 2.45552 15.5861 
1.91048 2.45025 15.6217 
1.89256 2.4527 15.6146 
1.87461 2.45515 15.6075 
1.85662 2.4576 15.6003 
1.83859 2.46007 15.5932 
1.82053 2.46253 15.5861 
1.91048 2.45723 15.6217 
1.89256 2.45969 15.6146 
1.87461 2.46214 15.6075 
1.85662 2.46461 15.6003 
1.83859 2.46707 15.5932 
1.82053 2.46955 15.5861 
1.91048 2.46421 15.6217 
1.89256 2.46667 15.6146 
1.87461 2.46914 15.6075 
1.85662 2.47161 15.6003 
1.83859 2.47408 15.5932 
1.82053 2.47656 15.5861 
1.91048 2.47119 15.6217 
1.89256 2.47366 15.6146 
1.87461 2.47613 15.6075 
1.85662 2.47861 15.6003 
1.83859 2.48109 15.5932 
1.82053 2.48358 15.5861 
1.91048 2.47818 15.6217 
1.89256 2.48065 15.6146 
1.87461 2.48313 15.6075 
1.85662 2.48561 15.6003 
1.83859 2.4881 15.5932 
1.82053 2.49059 15.5861 
1.91048 2.48516 15.6217 
1.89256 2.48764 15.6146 
1.87461 2.49012 15.6075 
1.85662 2.49261 15.6003 
1.83859 2.49511 15.5932 
1.82053 2.49761 15.5861 
1.91048 2.49214 15.6217 
1.89256 2.49462 15.6146 
1.87461 2.49712 15.6075 
1.85662 2.49962 15.6003 
1.83859 2.50212 15.5932 
1.91048 2.49912 15.6217 
1.89256 2.50161 15.6146 
1.87461 2.50411 15.6075 
1.85662 2.50662 15.6003 
1.83859 2.50913 15.5932 
1.91048 2.5061 15.6217 
1.89256 2.5086 15.6146 
1.87461 2.51111 15.6075 
1.85662 2.51362 15.6003 
1.83859 2.51614 15.5932 
1.91048 2.51308 15.6217 
1.89256 2.51559 15.6146 
1.87461 2.5181 15.6075 
1.85662 2.52062 15.6003 
1.83859 2.52314 15.5932 
1.91048 2.52006 15.6217 
1.89256 2.52258 15.6146 
1.87461 2.5251 15.6075 
1.85662 2.52762 15.6003 
1.83859 2.53015 15.5932 
1.91048 2.52704 15.6217 
1.89256 2.52956 15.6146 
1.87461 2.53209 15.6075 
1.85662 2.53462 15.6003 
1.91048 2.53402 15.6217 
1.89256 2.53655 15.6146 
1.87461 2.53909 15.6075 
1.85662 2.54163 15.6003 
1.91048 2.541 15.6217 
1.89256 2.54354 15.6146 
1.87461 2.54608 15.6075 
1.85662 2.54863 15.6003 
1.92837 2.54544 15.6287 
1.91048 2.54798 15.6217 
1.89256 2.55053 15.6146 
1.87461 2.55308 15.6075 
1.85662 2.55563 15.6003 
1.92837 2.55242 15.6287 
1.91048 2.55496 15.6217 
1.89256 2.55751 15.6146 
1.87461 2.56007 15.6075 
1.85662 2.56263 15.6003 
1.92837 2.55939 15.6287 
1.91048 2.56194 15.6217 
1.89256 2.5645 15.6146 
1.87461 2.56706 15.6075 
1.85662 2.56963 15.6003 
1.94621 2.56381 15.6358 
1.92837 2.56637 15.6287 
1.91048 2.56893 15.6217 
1.89256 2.57149 15.6146 
1.94621 2.57078 15.6358 
1.92837 2.57334 15.6287 
1.91048 2.57591 15.6217 
1.89256 2.57848 15.6146 
1.96402 2.57518 15.6429 
1.94621 2.57775 15.6358 
1.92837 2.58031 15.6287 
1.91048 2.58289 15.6217 
1.96402 2.58214 15.6429 
1.94621 2.58471 15.6358 
1.92837 2.58729 15.6287 
1.91048 2.58987 15.6217 
1.96402 2.5891 15.6429 
1.94621 2.59168 15.6358 
1.92837 2.59426 15.6287 
1.91048 2.59685 15.6217 
1.96402 2.59606 15.6429 
1.94621 2.59865 15.6358 
1.92837 2.60124 15.6287 
1.9818 2.60044 15.6499 
1.96402 2.60302 15.6429 
1.94621 2.60561 15.6358 
1.92837 2.60821 15.6287 
1.9818 2.60739 15.6499 
1.96402 2.60998 15.6429 
1.94621 2.61258 15.6358 
1.92837 2.61518 15.6287 
1.96402 2.61694 15.6429 
1.94621 2.61955 15.6358 
1.96402 2.6239 15.6429 
2.03492 2.62044 15.6709 
2.01725 2.62304 15.6639 
1.99954 2.62564 15.6569 
2.03492 2.62737 15.6709 
2.01725 2.62998 15.6639 
1.99954 2.63259 15.6569 
2.03492 2.63431 15.6709 
2.01725 2.63692 15.6639 
1.99954 2.63953 15.6569 
2.03492 2.64124 15.6709 
2.01725 2.64386 15.6639 
1.99954 2.64648 15.6569 
2.08772 2.64033 15.6918 
2.07015 2.64294 15.6849 
2.05255 2.64555 15.6779 
2.03492 2.64817 15.6709 
2.01725 2.6508 15.6639 
1.99954 2.65343 15.6569 
2.08772 2.64724 15.6918 
2.07015 2.64985 15.6849 
2.05255 2.65248 15.6779 
2.03492 2.6551 15.6709 
2.01725 2.65773 15.6639 
1.99954 2.66037 15.6569 
2.12275 2.64892 15.7057 
2.10525 2.65153 15.6988 
2.08772 2.65415 15.6918 
2.07015 2.65677 15.6849 
2.05255 2.6594 15.6779 
2.03492 2.66203 15.6709 
2.01725 2.66467 15.6639 
1.99954 2.66732 15.6569 
2.12275 2.65582 15.7057 
2.10525 2.65844 15.6988 
2.08772 2.66106 15.6918 
2.07015 2.66369 15.6849 
2.05255 2.66633 15.6779 
2.03492 2.66897 15.6709 
2.01725 2.67161 15.6639 
1.99954 2.67426 15.6569 
2.12275 2.66271 15.7057 
2.10525 2.66534 15.6988 
2.08772 2.66797 15.6918 
2.07015 2.67061 15.6849 
2.05255 2.67325 15.6779 
2.03492 2.6759 15.6709 
2.01725 2.67855 15.6639 
1.99954 2.68121 15.6569 
2.12275 2.66961 15.7057 
2.10525 2.67225 15.6988 
2.08772 2.67488 15.6918 
2.07015 2.67753 15.6849 
2.05255 2.68018 15.6779 
2.03492 2.68283 15.6709 
2.01725 2.68549 15.6639 
1.99954 2.68816 15.6569 
2.10525 2.67915 15.6988 
2.08772 2.6818 15.6918 
2.07015 2.68445 15.6849 
2.05255 2.6871 15.6779 
2.03492 2.68976 15.6709 
2.01725 2.69243 15.6639 
1.99954 2.6951 15.6569 
1.9818 2.69778 15.6499 
2.08772 2.68871 15.6918 
2.07015 2.69137 15.6849 
2.05255 2.69403 15.6779 
2.03492 2.6967 15.6709 
2.01725 2.69937 15.6639 
1.99954 2.70205 15.6569 
1.9818 2.70473 15.6499 
2.08772 2.69562 15.6918 
2.07015 2.69828 15.6849 
2.05255 2.70095 15.6779 
2.03492 2.70363 15.6709 
2.01725 2.70631 15.6639 
1.99954 2.70899 15.6569 
1.9818 2.71169 15.6499 
1.96402 2.71438 15.6429 
2.08772 2.70253 15.6918 
2.07015 2.7052 15.6849 
2.05255 2.70788 15.6779 
2.03492 2.71056 15.6709 
2.01725 2.71325 15.6639 
1.99954 2.71594 15.6569 
1.9818 2.71864 15.6499 
1.96402 2.72134 15.6429 
2.05255 2.71481 15.6779 
2.03492 2.71749 15.6709 
2.01725 2.72019 15.6639 
1.99954 2.72289 15.6569 
1.9818 2.72559 15.6499 
1.96402 2.7283 15.6429 
2.05255 2.72173 15.6779 
2.03492 2.72443 15.6709 
2.01725 2.72713 15.6639 
1.99954 2.72983 15.6569 
1.9818 2.73254 15.6499 
1.96402 2.73526 15.6429 
2.03492 2.73136 15.6709 
2.01725 2.73407 15.6639 
1.99954 2.73678 15.6569 
1.9818 2.7395 15.6499 
2.03492 2.73829 15.6709 
2.01725 2.74101 15.6639 
1.99954 2.74373 15.6569 
2.47428 2.04103 15.8479 
2.45723 2.043 15.8419 
2.44014 2.04497 15.836 
2.42301 2.04695 15.83 
2.44014 2.05175 15.836 
2.42301 2.05373 15.83 
2.40586 2.05572 15.824 
2.44014 2.05852 15.836 
2.42301 2.06051 15.83 
2.40586 2.06251 15.824 
2.38867 2.06451 15.818 
2.37144 2.06651 15.812 
2.44014 2.06529 15.836 
2.42301 2.06729 15.83 
2.40586 2.06929 15.824 
2.38867 2.0713 15.818 
2.37144 2.07331 15.812 
2.42301 2.07407 15.83 
2.40586 2.07608 15.824 
2.38867 2.07809 15.818 
2.37144 2.08011 15.812 
2.42301 2.08084 15.83 
2.40586 2.08286 15.824 
2.38867 2.08488 15.818 
2.37144 2.08691 15.812 
2.35418 2.08893 15.806 
2.33689 2.09778 15.8 
2.31957 2.09982 15.794 
2.30221 2.10187 15.7879 
2.28482 2.10392 15.7819 
2.26739 2.10597 15.7758 
2.28482 2.11075 15.7819 
2.26739 2.11281 15.7758 
2.24993 2.11488 15.7697 
2.23244 2.11695 15.7636 
2.24993 2.12172 15.7697 
2.23244 2.1238 15.7636 
2.21491 2.12588 15.7575 
2.21491 2.13274 15.7575 
2.19735 2.13483 15.7514 
2.17975 2.13692 15.7453 
2.17975 2.1438 15.7453 
2.16212 2.1459 15.7392 
2.14445 2.14801 15.733 
2.12675 2.15013 15.7268 
2.16212 2.15278 15.7392 
2.14445 2.1549 15.733 
2.12675 2.15702 15.7268 
2.14445 2.16178 15.733 
2.12675 2.16391 15.7268 
2.10901 2.16604 15.7207 
2.09124 2.16818 15.7145 
2.14445 2.16867 15.733 
2.12675 2.1708 15.7268 
2.09124 2.17508 15.7145 
2.07343 2.17723 15.7083 
2.09124 2.18199 15.7145 
2.07343 2.18414 15.7083 
2.05559 2.1863 15.7021 
2.07343 2.19106 15.7083 
2.05559 2.19322 15.7021 
2.03771 2.19539 15.6958 
2.10901 2.19364 15.7207 
2.09124 2.1958 15.7145 
2.07343 2.19797 15.7083 
2.05559 2.20014 15.7021 
2.03771 2.20232 15.6958 
2.0198 2.2045 15.6896 
2.09124 2.2027 15.7145 
2.05559 2.20706 15.7021 
2.03771 2.20924 15.6958 
2.0198 2.21143 15.6896 
2.00185 2.21362 15.6833 
2.03771 2.21617 15.6958 
2.0198 2.21836 15.6896 
2.00185 2.22056 15.6833 
1.98387 2.22276 15.6771 
2.03771 2.22309 15.6958 
2.0198 2.22529 15.6896 
2.00185 2.2275 15.6833 
1.98387 2.22971 15.6771 
1.96585 2.23193 15.6708 
1.94779 2.23414 15.6645 
2.03771 2.23002 15.6958 
2.0198 2.23223 15.6896 
2.00185 2.23444 15.6833 
1.98387 2.23666 15.6771 
1.96585 2.23888 15.6708 
1.94779 2.2411 15.6645 
2.03771 2.23694 15.6958 
2.0198 2.23916 15.6896 
2.00185 2.24138 15.6833 
1.98387 2.2436 15.6771 
1.96585 2.24583 15.6708 
1.94779 2.24806 15.6645 
2.00185 2.24832 15.6833 
1.98387 2.25055 15.6771 
1.96585 2.25278 15.6708 
1.94779 2.25502 15.6645 
1.9297 2.25727 15.6582 
1.91158 2.25952 15.6519 
2.00185 2.25526 15.6833 
1.98387 2.2575 15.6771 
1.96585 2.25974 15.6708 
1.94779 2.26198 15.6645 
1.9297 2.26424 15.6582 
1.91158 2.26649 15.6519 
2.00185 2.2622 15.6833 
1.98387 2.26444 15.6771 
1.96585 2.26669 15.6708 
1.94779 2.26894 15.6645 
1.9297 2.2712 15.6582 
1.91158 2.27347 15.6519 
2.00185 2.26914 15.6833 
1.98387 2.27139 15.6771 
1.96585 2.27364 15.6708 
1.94779 2.2759 15.6645 
1.9297 2.27817 15.6582 
1.91158 2.28044 15.6519 
1.89341 2.28271 15.6456 
1.96585 2.2806 15.6708 
1.94779 2.28286 15.6645 
1.9297 2.28514 15.6582 
1.91158 2.28741 15.6519 
1.89341 2.28969 15.6456 
1.87521 2.29198 15.6392 
1.96585 2.28755 15.6708 
1.94779 2.28982 15.6645 
1.9297 2.2921 15.6582 
1.91158 2.29439 15.6519 
1.89341 2.29668 15.6456 
1.87521 2.29897 15.6392 
1.96585 2.2945 15.6708 
1.94779 2.29678 15.6645 
1.9297 2.29907 15.6582 
1.91158 2.30136 15.6519 
1.89341 2.30366 15.6456 
1.87521 2.30596 15.6392 
1.85698 2.30826 15.6329 
1.96585 2.30146 15.6708 
1.94779 2.30374 15.6645 
1.9297 2.30604 15.6582 
1.91158 2.30833 15.6519 
1.89341 2.31064 15.6456 
1.87521 2.31294 15.6392 
1.85698 2.31525 15.6329 
1.9297 2.313 15.6582 
1.91158 2.31531 15.6519 
1.89341 2.31762 15.6456 
1.87521 2.31993 15.6392 
1.85698 2.32225 15.6329 
1.8387 2.32457 15.6265 
1.9297 2.31997 15.6582 
1.91158 2.32228 15.6519 
1.89341 2.3246 15.6456 
1.87521 2.32692 15.6392 
1.85698 2.32924 15.6329 
1.8387 2.33157 15.6265 
1.9297 2.32694 15.6582 
1.91158 2.32926 15.6519 
1.89341 2.33158 15.6456 
1.87521 2.33391 15.6392 
1.85698 2.33624 15.6329 
1.8387 2.33858 15.6265 
1.9297 2.3339 15.6582 
1.91158 2.33623 15.6519 
1.89341 2.33856 15.6456 
1.87521 2.34089 15.6392 
1.85698 2.34323 15.6329 
1.8387 2.34558 15.6265 
1.91158 2.3432 15.6519 
1.89341 2.34554 15.6456 
1.87521 2.34788 15.6392 
1.85698 2.35023 15.6329 
1.8387 2.35258 15.6265 
1.8204 2.35493 15.6201 
1.89341 2.35252 15.6456 
1.87521 2.35487 15.6392 
1.85698 2.35722 15.6329 
1.8387 2.35958 15.6265 
1.8204 2.36194 15.6201 
1.89341 2.3595 15.6456 
1.87521 2.36186 15.6392 
1.85698 2.36422 15.6329 
1.8387 2.36658 15.6265 
1.8204 2.36895 15.6201 
1.89341 2.36648 15.6456 
1.87521 2.36885 15.6392 
1.85698 2.37121 15.6329 
1.8387 2.37358 15.6265 
1.8204 2.37596 15.6201 
1.89341 2.37346 15.6456 
1.87521 2.37583 15.6392 
1.85698 2.37821 15.6329 
1.8387 2.38059 15.6265 
1.8204 2.38297 15.6201 
1.80205 2.38536 15.6138 
1.89341 2.38044 15.6456 
1.87521 2.38282 15.6392 
1.85698 2.3852 15.6329 
1.8387 2.38759 15.6265 
1.8204 2.38998 15.6201 
1.80205 2.39237 15.6138 
1.89341 2.38743 15.6456 
1.87521 2.38981 15.6392 
1.85698 2.3922 15.6329 
1.8387 2.39459 15.6265 
1.8204 2.39699 15.6201 
1.80205 2.39939 15.6138 
1.89341 2.39441 15.6456 
1.87521 2.3968 15.6392 
1.85698 2.39919 15.6329 
1.8387 2.40159 15.6265 
1.8204 2.404 15.6201 
1.80205 2.4064 15.6138 
1.89341 2.40139 15.6456 
1.87521 2.40378 15.6392 
1.85698 2.40619 15.6329 
1.8387 2.40859 15.6265 
1.8204 2.411 15.6201 
1.80205 2.41342 15.6138 
1.89341 2.40837 15.6456 
1.87521 2.41077 15.6392 
1.85698 2.41318 15.6329 
1.8387 2.41559 15.6265 
1.8204 2.41801 15.6201 
1.80205 2.42044 15.6138 
1.87521 2.41776 15.6392 
1.85698 2.42018 15.6329 
1.8387 2.4226 15.6265 
1.8204 2.42502 15.6201 
1.80205 2.42745 15.6138 
1.87521 2.42475 15.6392 
1.85698 2.42717 15.6329 
1.8387 2.4296 15.6265 
1.8204 2.43203 15.6201 
1.80205 2.43447 15.6138 
1.87521 2.43174 15.6392 
1.85698 2.43417 15.6329 
1.8387 2.4366 15.6265 
1.8204 2.43904 15.6201 
1.80205 2.44148 15.6138 
1.87521 2.43872 15.6392 
1.85698 2.44116 15.6329 
1.8387 2.4436 15.6265 
1.8204 2.44605 15.6201 
1.80205 2.4485 15.6138 
1.87521 2.44571 15.6392 
1.85698 2.44815 15.6329 
1.8387 2.4506 15.6265 
1.8204 2.45306 15.6201 
1.80205 2.45552 15.6138 
1.87521 2.4527 15.6392 
1.85698 2.45515 15.6329 
1.8387 2.4576 15.6265 
1.8204 2.46007 15.6201 
1.80205 2.46253 15.6138 
1.89341 2.45723 15.6456 
1.87521 2.45969 15.6392 
1.85698 2.46214 15.6329 
1.8387 2.46461 15.6265 
1.8204 2.46707 15.6201 
1.80205 2.46955 15.6138 
1.89341 2.46421 15.6456 
1.87521 2.46667 15.6392 
1.85698 2.46914 15.6329 
1.8387 2.47161 15.6265 
1.8204 2.47408 15.6201 
1.80205 2.47656 15.6138 
1.89341 2.47119 15.6456 
1.87521 2.47366 15.6392 
1.85698 2.47613 15.6329 
1.8387 2.47861 15.6265 
1.8204 2.48109 15.6201 
1.80205 2.48358 15.6138 
1.89341 2.47818 15.6456 
1.87521 2.48065 15.6392 
1.85698 2.48313 15.6329 
1.8387 2.48561 15.6265 
1.8204 2.4881 15.6201 
1.80205 2.49059 15.6138 
1.87521 2.48764 15.6392 
1.85698 2.49012 15.6329 
1.8387 2.49261 15.6265 
1.8204 2.49511 15.6201 
1.80205 2.49761 15.6138 
1.87521 2.49462 15.6392 
1.85698 2.49712 15.6329 
1.8387 2.49962 15.6265 
1.8204 2.50212 15.6201 
1.80205 2.50463 15.6138 
1.87521 2.50161 15.6392 
1.85698 2.50411 15.6329 
1.8387 2.50662 15.6265 
1.8204 2.50913 15.6201 
1.80205 2.51164 15.6138 
1.87521 2.5086 15.6392 
1.85698 2.51111 15.6329 
1.8387 2.51362 15.6265 
1.8204 2.51614 15.6201 
1.80205 2.51866 15.6138 
1.87521 2.51559 15.6392 
1.85698 2.5181 15.6329 
1.8387 2.52062 15.6265 
1.8204 2.52314 15.6201 
1.89341 2.52006 15.6456 
1.87521 2.52258 15.6392 
1.85698 2.5251 15.6329 
1.8387 2.52762 15.6265 
1.8204 2.53015 15.6201 
1.89341 2.52704 15.6456 
1.87521 2.52956 15.6392 
1.85698 2.53209 15.6329 
1.8387 2.53462 15.6265 
1.8204 2.53716 15.6201 
1.89341 2.53402 15.6456 
1.87521 2.53655 15.6392 
1.85698 2.53909 15.6329 
1.8387 2.54163 15.6265 
1.8204 2.54417 15.6201 
1.89341 2.541 15.6456 
1.87521 2.54354 15.6392 
1.85698 2.54608 15.6329 
1.8387 2.54863 15.6265 
1.89341 2.54798 15.6456 
1.87521 2.55053 15.6392 
1.85698 2.55308 15.6329 
1.8387 2.55563 15.6265 
1.89341 2.55496 15.6456 
1.87521 2.55751 15.6392 
1.85698 2.56007 15.6329 
1.8387 2.56263 15.6265 
1.89341 2.56194 15.6456 
1.87521 2.5645 15.6392 
1.85698 2.56706 15.6329 
1.8387 2.56963 15.6265 
1.9297 2.56381 15.6582 
1.91158 2.56637 15.6519 
1.89341 2.56893 15.6456 
1.87521 2.57149 15.6392 
1.85698 2.57406 15.6329 
1.8387 2.57663 15.6265 
1.9297 2.57078 15.6582 
1.91158 2.57334 15.6519 
1.89341 2.57591 15.6456 
1.87521 2.57848 15.6392 
1.85698 2.58105 15.6329 
1.8387 2.58364 15.6265 
1.9297 2.57775 15.6582 
1.91158 2.58031 15.6519 
1.89341 2.58289 15.6456 
1.87521 2.58547 15.6392 
1.85698 2.58805 15.6329 
1.9297 2.58471 15.6582 
1.91158 2.58729 15.6519 
1.89341 2.58987 15.6456 
1.87521 2.59245 15.6392 
1.9297 2.59168 15.6582 
1.91158 2.59426 15.6519 
1.89341 2.59685 15.6456 
1.87521 2.59944 15.6392 
1.9297 2.59865 15.6582 
1.91158 2.60124 15.6519 
1.89341 2.60383 15.6456 
1.87521 2.60643 15.6392 
1.9297 2.60561 15.6582 
1.91158 2.60821 15.6519 
1.89341 2.61081 15.6456 
1.9297 2.61258 15.6582 
1.91158 2.61518 15.6519 
1.94779 2.61694 15.6645 
1.9297 2.61955 15.6582 
1.91158 2.62216 15.6519 
1.94779 2.6239 15.6645 
1.9297 2.62651 15.6582 
1.94779 2.63086 15.6645 
1.9297 2.63348 15.6582 
2.00185 2.62998 15.6833 
1.98387 2.63259 15.6771 
1.94779 2.63782 15.6645 
2.00185 2.63692 15.6833 
1.98387 2.63953 15.6771 
1.96585 2.64216 15.6708 
2.00185 2.64386 15.6833 
1.98387 2.64648 15.6771 
1.96585 2.64911 15.6708 
2.0198 2.64817 15.6896 
2.00185 2.6508 15.6833 
1.98387 2.65343 15.6771 
1.96585 2.65606 15.6708 
2.07343 2.64724 15.7083 
2.05559 2.64985 15.7021 
2.03771 2.65248 15.6958 
2.0198 2.6551 15.6896 
2.00185 2.65773 15.6833 
1.98387 2.66037 15.6771 
2.09124 2.65153 15.7145 
2.07343 2.65415 15.7083 
2.05559 2.65677 15.7021 
2.03771 2.6594 15.6958 
2.0198 2.66203 15.6896 
2.00185 2.66467 15.6833 
1.98387 2.66732 15.6771 
1.96585 2.66997 15.6708 
2.09124 2.65844 15.7145 
2.07343 2.66106 15.7083 
2.05559 2.66369 15.7021 
2.03771 2.66633 15.6958 
2.0198 2.66897 15.6896 
2.00185 2.67161 15.6833 
1.98387 2.67426 15.6771 
1.96585 2.67692 15.6708 
2.07343 2.66797 15.7083 
2.05559 2.67061 15.7021 
2.03771 2.67325 15.6958 
2.0198 2.6759 15.6896 
2.00185 2.67855 15.6833 
1.98387 2.68121 15.6771 
1.96585 2.68387 15.6708 
2.07343 2.67488 15.7083 
2.05559 2.67753 15.7021 
2.03771 2.68018 15.6958 
2.0198 2.68283 15.6896 
2.00185 2.68549 15.6833 
1.98387 2.68816 15.6771 
1.96585 2.69083 15.6708 
2.07343 2.6818 15.7083 
2.05559 2.68445 15.7021 
2.03771 2.6871 15.6958 
2.0198 2.68976 15.6896 
2.00185 2.69243 15.6833 
1.98387 2.6951 15.6771 
1.96585 2.69778 15.6708 
1.94779 2.70046 15.6645 
2.07343 2.68871 15.7083 
2.05559 2.69137 15.7021 
2.03771 2.69403 15.6958 
2.0198 2.6967 15.6896 
2.00185 2.69937 15.6833 
1.98387 2.70205 15.6771 
1.96585 2.70473 15.6708 
1.94779 2.70742 15.6645 
2.07343 2.69562 15.7083 
2.05559 2.69828 15.7021 
2.03771 2.70095 15.6958 
2.0198 2.70363 15.6896 
2.00185 2.70631 15.6833 
1.98387 2.70899 15.6771 
1.96585 2.71169 15.6708 
1.94779 2.71438 15.6645 
2.07343 2.70253 15.7083 
2.05559 2.7052 15.7021 
2.03771 2.70788 15.6958 
2.0198 2.71056 15.6896 
2.00185 2.71325 15.6833 
1.98387 2.71594 15.6771 
1.96585 2.71864 15.6708 
1.94779 2.72134 15.6645 
2.03771 2.71481 15.6958 
2.0198 2.71749 15.6896 
2.00185 2.72019 15.6833 
1.98387 2.72289 15.6771 
1.96585 2.72559 15.6708 
1.94779 2.7283 15.6645 
2.03771 2.72173 15.6958 
2.0198 2.72443 15.6896 
2.00185 2.72713 15.6833 
1.98387 2.72983 15.6771 
1.96585 2.73254 15.6708 
1.94779 2.73526 15.6645 
2.0198 2.73136 15.6896 
2.00185 2.73407 15.6833 
1.98387 2.73678 15.6771 
1.96585 2.7395 15.6708 
1.94779 2.74222 15.6645 
2.0198 2.73829 15.6896 
2.00185 2.74101 15.6833 
1.98387 2.74373 15.6771 
1.96585 2.74645 15.6708 
1.94779 2.74918 15.6645 
2.46619 2.04103 15.848 
2.4489 2.043 15.8427 
2.43158 2.04497 15.8375 
2.41422 2.04695 15.8323 
2.4489 2.04976 15.8427 
2.43158 2.05175 15.8375 
2.41422 2.05373 15.8323 
2.39683 2.05572 15.827 
2.43158 2.05852 15.8375 
2.41422 2.06051 15.8323 
2.39683 2.06251 15.827 
2.3794 2.06451 15.8218 
2.36194 2.06651 15.8165 
2.43158 2.06529 15.8375 
2.41422 2.06729 15.8323 
2.39683 2.06929 15.827 
2.3794 2.0713 15.8218 
2.36194 2.07331 15.8165 
2.41422 2.07407 15.8323 
2.39683 2.07608 15.827 
2.3794 2.07809 15.8218 
2.36194 2.08011 15.8165 
2.41422 2.08084 15.8323 
2.39683 2.08286 15.827 
2.3794 2.08488 15.8218 
2.36194 2.08691 15.8165 
2.34444 2.08893 15.8112 
2.30936 2.09982 15.8006 
2.29176 2.10187 15.7953 
2.27413 2.10392 15.79 
2.25646 2.10597 15.7846 
2.23876 2.10803 15.7793 
2.27413 2.11075 15.79 
2.25646 2.11281 15.7846 
2.23876 2.11488 15.7793 
2.22103 2.11695 15.7739 
2.22103 2.1238 15.7739 
2.20326 2.12588 15.7686 
2.20326 2.13274 15.7686 
2.18546 2.13483 15.7632 
2.14974 2.13902 15.7524 
2.16762 2.1438 15.7578 
2.14974 2.1459 15.7524 
2.13184 2.14801 15.747 
2.11389 2.15013 15.7416 
2.13184 2.1549 15.747 
2.11389 2.15702 15.7416 
2.09591 2.15914 15.7362 
2.13184 2.16178 15.747 
2.11389 2.16391 15.7416 
2.09591 2.16604 15.7362 
2.0779 2.16818 15.7307 
2.05985 2.17032 15.7253 
2.11389 2.1708 15.7416 
2.0779 2.17508 15.7307 
2.05985 2.17723 15.7253 
2.04176 2.17938 15.7198 
2.0779 2.18199 15.7307 
2.05985 2.18414 15.7253 
2.04176 2.1863 15.7198 
2.02364 2.18847 15.7143 
2.00548 2.19063 15.7089 
2.05985 2.19106 15.7253 
2.04176 2.19322 15.7198 
2.02364 2.19539 15.7143 
2.00548 2.19757 15.7089 
2.09591 2.19364 15.7362 
2.0779 2.1958 15.7307 
2.05985 2.19797 15.7253 
2.04176 2.20014 15.7198 
2.02364 2.20232 15.7143 
2.00548 2.2045 15.7089 
1.98729 2.20668 15.7034 
1.96906 2.20887 15.6979 
2.09591 2.20053 15.7362 
2.0779 2.2027 15.7307 
2.05985 2.20488 15.7253 
2.04176 2.20706 15.7198 
2.02364 2.20924 15.7143 
2.00548 2.21143 15.7089 
1.98729 2.21362 15.7034 
1.96906 2.21582 15.6979 
2.00548 2.21836 15.7089 
1.98729 2.22056 15.7034 
1.96906 2.22276 15.6979 
1.95079 2.22497 15.6923 
1.93249 2.22719 15.6868 
2.00548 2.22529 15.7089 
1.98729 2.2275 15.7034 
1.96906 2.22971 15.6979 
1.95079 2.23193 15.6923 
1.93249 2.23414 15.6868 
1.98729 2.23444 15.7034 
1.96906 2.23666 15.6979 
1.95079 2.23888 15.6923 
1.93249 2.2411 15.6868 
1.91415 2.24334 15.6813 
1.98729 2.24138 15.7034 
1.96906 2.2436 15.6979 
1.95079 2.24583 15.6923 
1.93249 2.24806 15.6868 
1.91415 2.2503 15.6813 
1.89577 2.25254 15.6757 
1.98729 2.24832 15.7034 
1.96906 2.25055 15.6979 
1.95079 2.25278 15.6923 
1.93249 2.25502 15.6868 
1.91415 2.25727 15.6813 
1.89577 2.25952 15.6757 
1.96906 2.2575 15.6979 
1.95079 2.25974 15.6923 
1.93249 2.26198 15.6868 
1.91415 2.26424 15.6813 
1.89577 2.26649 15.6757 
1.95079 2.26669 15.6923 
1.93249 2.26894 15.6868 
1.91415 2.2712 15.6813 
1.89577 2.27347 15.6757 
1.87736 2.27573 15.6702 
1.95079 2.27364 15.6923 
1.93249 2.2759 15.6868 
1.91415 2.27817 15.6813 
1.89577 2.28044 15.6757 
1.87736 2.28271 15.6702 
1.85891 2.28499 15.6646 
1.95079 2.2806 15.6923 
1.93249 2.28286 15.6868 
1.91415 2.28514 15.6813 
1.89577 2.28741 15.6757 
1.87736 2.28969 15.6702 
1.85891 2.29198 15.6646 
1.95079 2.28755 15.6923 
1.93249 2.28982 15.6868 
1.91415 2.2921 15.6813 
1.89577 2.29439 15.6757 
1.87736 2.29668 15.6702 
1.85891 2.29897 15.6646 
1.84042 2.30127 15.659 
1.93249 2.29678 15.6868 
1.91415 2.29907 15.6813 
1.89577 2.30136 15.6757 
1.87736 2.30366 15.6702 
1.85891 2.30596 15.6646 
1.84042 2.30826 15.659 
1.8219 2.31057 15.6534 
1.93249 2.30374 15.6868 
1.91415 2.30604 15.6813 
1.89577 2.30833 15.6757 
1.87736 2.31064 15.6702 
1.85891 2.31294 15.6646 
1.84042 2.31525 15.659 
1.8219 2.31757 15.6534 
1.91415 2.313 15.6813 
1.89577 2.31531 15.6757 
1.87736 2.31762 15.6702 
1.85891 2.31993 15.6646 
1.84042 2.32225 15.659 
1.8219 2.32457 15.6534 
1.80334 2.3269 15.6478 
1.91415 2.31997 15.6813 
1.89577 2.32228 15.6757 
1.87736 2.3246 15.6702 
1.85891 2.32692 15.6646 
1.84042 2.32924 15.659 
1.8219 2.33157 15.6534 
1.80334 2.33391 15.6478 
1.91415 2.32694 15.6813 
1.89577 2.32926 15.6757 
1.87736 2.33158 15.6702 
1.85891 2.33391 15.6646 
1.84042 2.33624 15.659 
1.8219 2.33858 15.6534 
1.80334 2.34092 15.6478 
1.91415 2.3339 15.6813 
1.89577 2.33623 15.6757 
1.87736 2.33856 15.6702 
1.85891 2.34089 15.6646 
1.84042 2.34323 15.659 
1.8219 2.34558 15.6534 
1.80334 2.34793 15.6478 
1.87736 2.34554 15.6702 
1.85891 2.34788 15.6646 
1.84042 2.35023 15.659 
1.8219 2.35258 15.6534 
1.80334 2.35493 15.6478 
1.78474 2.35729 15.6422 
1.87736 2.35252 15.6702 
1.85891 2.35487 15.6646 
1.84042 2.35722 15.659 
1.8219 2.35958 15.6534 
1.80334 2.36194 15.6478 
1.78474 2.36431 15.6422 
1.87736 2.3595 15.6702 
1.85891 2.36186 15.6646 
1.84042 2.36422 15.659 
1.8219 2.36658 15.6534 
1.80334 2.36895 15.6478 
1.78474 2.37133 15.6422 
1.87736 2.36648 15.6702 
1.85891 2.36885 15.6646 
1.84042 2.37121 15.659 
1.8219 2.37358 15.6534 
1.80334 2.37596 15.6478 
1.78474 2.37834 15.6422 
1.87736 2.37346 15.6702 
1.85891 2.37583 15.6646 
1.84042 2.37821 15.659 
1.8219 2.38059 15.6534 
1.80334 2.38297 15.6478 
1.78474 2.38536 15.6422 
1.87736 2.38044 15.6702 
1.85891 2.38282 15.6646 
1.84042 2.3852 15.659 
1.8219 2.38759 15.6534 
1.80334 2.38998 15.6478 
1.78474 2.39237 15.6422 
1.85891 2.38981 15.6646 
1.84042 2.3922 15.659 
1.8219 2.39459 15.6534 
1.80334 2.39699 15.6478 
1.78474 2.39939 15.6422 
1.76611 2.4018 15.6366 
1.85891 2.3968 15.6646 
1.84042 2.39919 15.659 
1.8219 2.40159 15.6534 
1.80334 2.404 15.6478 
1.78474 2.4064 15.6422 
1.76611 2.40882 15.6366 
1.85891 2.40378 15.6646 
1.84042 2.40619 15.659 
1.8219 2.40859 15.6534 
1.80334 2.411 15.6478 
1.78474 2.41342 15.6422 
1.76611 2.41584 15.6366 
1.85891 2.41077 15.6646 
1.84042 2.41318 15.659 
1.8219 2.41559 15.6534 
1.80334 2.41801 15.6478 
1.78474 2.42044 15.6422 
1.76611 2.42286 15.6366 
1.84042 2.42018 15.659 
1.8219 2.4226 15.6534 
1.80334 2.42502 15.6478 
1.78474 2.42745 15.6422 
1.76611 2.42989 15.6366 
1.84042 2.42717 15.659 
1.8219 2.4296 15.6534 
1.80334 2.43203 15.6478 
1.78474 2.43447 15.6422 
1.76611 2.43691 15.6366 
1.84042 2.43417 15.659 
1.8219 2.4366 15.6534 
1.80334 2.43904 15.6478 
1.78474 2.44148 15.6422 
1.76611 2.44393 15.6366 
1.84042 2.44116 15.659 
1.8219 2.4436 15.6534 
1.80334 2.44605 15.6478 
1.78474 2.4485 15.6422 
1.76611 2.45096 15.6366 
1.84042 2.44815 15.659 
1.8219 2.4506 15.6534 
1.80334 2.45306 15.6478 
1.78474 2.45552 15.6422 
1.76611 2.45798 15.6366 
1.84042 2.45515 15.659 
1.8219 2.4576 15.6534 
1.80334 2.46007 15.6478 
1.78474 2.46253 15.6422 
1.76611 2.465 15.6366 
1.84042 2.46214 15.659 
1.8219 2.46461 15.6534 
1.80334 2.46707 15.6478 
1.78474 2.46955 15.6422 
1.76611 2.47202 15.6366 
1.84042 2.46914 15.659 
1.8219 2.47161 15.6534 
1.80334 2.47408 15.6478 
1.78474 2.47656 15.6422 
1.76611 2.47905 15.6366 
1.84042 2.47613 15.659 
1.8219 2.47861 15.6534 
1.80334 2.48109 15.6478 
1.78474 2.48358 15.6422 
1.76611 2.48607 15.6366 
1.84042 2.48313 15.659 
1.8219 2.48561 15.6534 
1.80334 2.4881 15.6478 
1.78474 2.49059 15.6422 
1.76611 2.49309 15.6366 
1.84042 2.49012 15.659 
1.8219 2.49261 15.6534 
1.80334 2.49511 15.6478 
1.78474 2.49761 15.6422 
1.76611 2.50012 15.6366 
1.84042 2.49712 15.659 
1.8219 2.49962 15.6534 
1.80334 2.50212 15.6478 
1.78474 2.50463 15.6422 
1.76611 2.50714 15.6366 
1.84042 2.50411 15.659 
1.8219 2.50662 15.6534 
1.80334 2.50913 15.6478 
1.78474 2.51164 15.6422 
1.76611 2.51416 15.6366 
1.84042 2.51111 15.659 
1.8219 2.51362 15.6534 
1.80334 2.51614 15.6478 
1.78474 2.51866 15.6422 
1.76611 2.52118 15.6366 
1.84042 2.5181 15.659 
1.8219 2.52062 15.6534 
1.80334 2.52314 15.6478 
1.78474 2.52567 15.6422 
1.76611 2.52821 15.6366 
1.84042 2.5251 15.659 
1.8219 2.52762 15.6534 
1.80334 2.53015 15.6478 
1.78474 2.53269 15.6422 
1.76611 2.53523 15.6366 
1.84042 2.53209 15.659 
1.8219 2.53462 15.6534 
1.80334 2.53716 15.6478 
1.78474 2.5397 15.6422 
1.76611 2.54225 15.6366 
1.85891 2.53655 15.6646 
1.84042 2.53909 15.659 
1.8219 2.54163 15.6534 
1.80334 2.54417 15.6478 
1.78474 2.54672 15.6422 
1.85891 2.54354 15.6646 
1.84042 2.54608 15.659 
1.8219 2.54863 15.6534 
1.80334 2.55118 15.6478 
1.78474 2.55374 15.6422 
1.85891 2.55053 15.6646 
1.84042 2.55308 15.659 
1.8219 2.55563 15.6534 
1.80334 2.55819 15.6478 
1.78474 2.56075 15.6422 
1.85891 2.55751 15.6646 
1.84042 2.56007 15.659 
1.8219 2.56263 15.6534 
1.80334 2.5652 15.6478 
1.85891 2.5645 15.6646 
1.84042 2.56706 15.659 
1.8219 2.56963 15.6534 
1.80334 2.57221 15.6478 
1.85891 2.57149 15.6646 
1.84042 2.57406 15.659 
1.8219 2.57663 15.6534 
1.87736 2.57591 15.6702 
1.85891 2.57848 15.6646 
1.84042 2.58105 15.659 
1.8219 2.58364 15.6534 
1.87736 2.58289 15.6702 
1.85891 2.58547 15.6646 
1.84042 2.58805 15.659 
1.8219 2.59064 15.6534 
1.87736 2.58987 15.6702 
1.85891 2.59245 15.6646 
1.84042 2.59504 15.659 
1.8219 2.59764 15.6534 
1.87736 2.59685 15.6702 
1.85891 2.59944 15.6646 
1.84042 2.60204 15.659 
1.8219 2.60464 15.6534 
1.89577 2.60124 15.6757 
1.87736 2.60383 15.6702 
1.85891 2.60643 15.6646 
1.84042 2.60903 15.659 
1.8219 2.61164 15.6534 
1.89577 2.60821 15.6757 
1.87736 2.61081 15.6702 
1.85891 2.61342 15.6646 
1.84042 2.61603 15.659 
1.8219 2.61864 15.6534 
1.91415 2.61258 15.6813 
1.89577 2.61518 15.6757 
1.87736 2.61779 15.6702 
1.85891 2.6204 15.6646 
1.84042 2.62302 15.659 
1.8219 2.62565 15.6534 
1.91415 2.61955 15.6813 
1.89577 2.62216 15.6757 
1.87736 2.62477 15.6702 
1.85891 2.62739 15.6646 
1.84042 2.63002 15.659 
1.91415 2.62651 15.6813 
1.89577 2.62913 15.6757 
1.87736 2.63175 15.6702 
1.85891 2.63438 15.6646 
1.84042 2.63701 15.659 
1.93249 2.63086 15.6868 
1.91415 2.63348 15.6813 
1.89577 2.6361 15.6757 
1.87736 2.63873 15.6702 
1.85891 2.64137 15.6646 
1.93249 2.63782 15.6868 
1.91415 2.64045 15.6813 
1.89577 2.64308 15.6757 
1.87736 2.64571 15.6702 
1.95079 2.64216 15.6923 
1.93249 2.64478 15.6868 
1.91415 2.64741 15.6813 
1.89577 2.65005 15.6757 
1.98729 2.64386 15.7034 
1.96906 2.64648 15.6979 
1.95079 2.64911 15.6923 
1.93249 2.65174 15.6868 
1.91415 2.65438 15.6813 
1.89577 2.65703 15.6757 
1.98729 2.6508 15.7034 
1.96906 2.65343 15.6979 
1.95079 2.65606 15.6923 
1.93249 2.6587 15.6868 
1.89577 2.664 15.6757 
1.98729 2.65773 15.7034 
1.96906 2.66037 15.6979 
1.95079 2.66301 15.6923 
1.93249 2.66566 15.6868 
1.89577 2.67097 15.6757 
2.04176 2.65677 15.7198 
2.02364 2.6594 15.7143 
2.00548 2.66203 15.7089 
1.98729 2.66467 15.7034 
1.96906 2.66732 15.6979 
1.95079 2.66997 15.6923 
2.05985 2.66106 15.7253 
2.04176 2.66369 15.7198 
2.02364 2.66633 15.7143 
2.00548 2.66897 15.7089 
1.98729 2.67161 15.7034 
1.96906 2.67426 15.6979 
1.95079 2.67692 15.6923 
1.93249 2.67958 15.6868 
2.05985 2.66797 15.7253 
2.04176 2.67061 15.7198 
2.02364 2.67325 15.7143 
2.00548 2.6759 15.7089 
1.98729 2.67855 15.7034 
1.96906 2.68121 15.6979 
1.95079 2.68387 15.6923 
1.93249 2.68654 15.6868 
2.04176 2.67753 15.7198 
2.02364 2.68018 15.7143 
2.00548 2.68283 15.7089 
1.98729 2.68549 15.7034 
1.96906 2.68816 15.6979 
1.95079 2.69083 15.6923 
1.93249 2.6935 15.6868 
1.91415 2.69618 15.6813 
2.05985 2.6818 15.7253 
2.04176 2.68445 15.7198 
2.02364 2.6871 15.7143 
2.00548 2.68976 15.7089 
1.98729 2.69243 15.7034 
1.96906 2.6951 15.6979 
1.95079 2.69778 15.6923 
1.93249 2.70046 15.6868 
1.91415 2.70315 15.6813 
2.05985 2.68871 15.7253 
2.04176 2.69137 15.7198 
2.02364 2.69403 15.7143 
2.00548 2.6967 15.7089 
1.98729 2.69937 15.7034 
1.96906 2.70205 15.6979 
1.95079 2.70473 15.6923 
1.93249 2.70742 15.6868 
2.05985 2.69562 15.7253 
2.04176 2.69828 15.7198 
2.02364 2.70095 15.7143 
2.00548 2.70363 15.7089 
1.98729 2.70631 15.7034 
1.96906 2.70899 15.6979 
1.95079 2.71169 15.6923 
1.93249 2.71438 15.6868 
2.05985 2.70253 15.7253 
2.04176 2.7052 15.7198 
2.02364 2.70788 15.7143 
2.00548 2.71056 15.7089 
1.98729 2.71325 15.7034 
1.96906 2.71594 15.6979 
1.95079 2.71864 15.6923 
1.93249 2.72134 15.6868 
2.02364 2.71481 15.7143 
2.00548 2.71749 15.7089 
1.98729 2.72019 15.7034 
1.96906 2.72289 15.6979 
1.95079 2.72559 15.6923 
1.93249 2.7283 15.6868 
2.02364 2.72173 15.7143 
2.00548 2.72443 15.7089 
1.98729 2.72713 15.7034 
1.96906 2.72983 15.6979 
1.95079 2.73254 15.6923 
1.93249 2.73526 15.6868 
2.02364 2.72866 15.7143 
2.00548 2.73136 15.7089 
1.98729 2.73407 15.7034 
1.96906 2.73678 15.6979 
1.95079 2.7395 15.6923 
1.93249 2.74222 15.6868 
2.02364 2.73558 15.7143 
2.00548 2.73829 15.7089 
1.98729 2.74101 15.7034 
1.96906 2.74373 15.6979 
1.95079 2.74645 15.6923 
1.93249 2.74918 15.6868 
2.00548 2.74522 15.7089 
1.98729 2.74794 15.7034 
1.96906 2.75067 15.6979 
1.95079 2.7534 15.6923 
1.93249 2.75614 15.6868 
2.45811 2.04103 15.8484 
2.44062 2.043 15.8439 
2.42309 2.04497 15.8394 
2.40552 2.04695 15.8349 
2.44062 2.04976 15.8439 
2.42309 2.05175 15.8394 
2.40552 2.05373 15.8349 
2.38793 2.05572 15.8304 
2.44062 2.05653 15.8439 
2.42309 2.05852 15.8394 
2.40552 2.06051 15.8349 
2.38793 2.06251 15.8304 
2.3703 2.06451 15.8259 
2.35263 2.06651 15.8213 
2.44062 2.06329 15.8439 
2.42309 2.06529 15.8394 
2.40552 2.06729 15.8349 
2.38793 2.06929 15.8304 
2.3703 2.0713 15.8259 
2.35263 2.07331 15.8213 
2.42309 2.07206 15.8394 
2.40552 2.07407 15.8349 
2.38793 2.07608 15.8304 
2.3703 2.07809 15.8259 
2.35263 2.08011 15.8213 
2.40552 2.08084 15.8349 
2.38793 2.08286 15.8304 
2.3703 2.08488 15.8259 
2.35263 2.08691 15.8213 
2.33493 2.08893 15.8168 
2.3172 2.09097 15.8122 
2.3172 2.09778 15.8122 
2.29943 2.09982 15.8077 
2.28163 2.10187 15.8031 
2.26379 2.10392 15.7985 
2.24591 2.10597 15.7939 
2.22801 2.10803 15.7893 
2.26379 2.11075 15.7985 
2.24591 2.11281 15.7939 
2.22801 2.11488 15.7893 
2.21006 2.11695 15.7847 
2.21006 2.1238 15.7847 
2.19209 2.12588 15.7801 
2.17407 2.12796 15.7755 
2.19209 2.13274 15.7801 
2.17407 2.13483 15.7755 
2.13794 2.13902 15.7662 
2.13794 2.1459 15.7662 
2.11982 2.14801 15.7615 
2.10166 2.15013 15.7569 
2.10166 2.15702 15.7569 
2.08347 2.16604 15.7522 
2.06525 2.16818 15.7475 
2.04698 2.17032 15.7428 
2.02868 2.17247 15.7381 
2.06525 2.17508 15.7475 
2.04698 2.17723 15.7428 
2.02868 2.17938 15.7381 
2.01035 2.18154 15.7334 
2.04698 2.18414 15.7428 
2.02868 2.1863 15.7381 
2.01035 2.18847 15.7334 
1.99198 2.19063 15.7287 
1.97357 2.1928 15.724 
2.02868 2.19322 15.7381 
2.01035 2.19539 15.7334 
1.99198 2.19757 15.7287 
1.97357 2.19974 15.724 
1.95512 2.20193 15.7193 
2.04698 2.19797 15.7428 
2.02868 2.20014 15.7381 
2.01035 2.20232 15.7334 
1.99198 2.2045 15.7287 
1.97357 2.20668 15.724 
1.95512 2.20887 15.7193 
2.02868 2.20706 15.7381 
2.01035 2.20924 15.7334 
1.99198 2.21143 15.7287 
1.97357 2.21362 15.724 
1.95512 2.21582 15.7193 
1.93664 2.21802 15.7145 
1.91812 2.22023 15.7098 
1.99198 2.21836 15.7287 
1.97357 2.22056 15.724 
1.95512 2.22276 15.7193 
1.93664 2.22497 15.7145 
1.91812 2.22719 15.7098 
1.97357 2.2275 15.724 
1.95512 2.22971 15.7193 
1.93664 2.23193 15.7145 
1.91812 2.23414 15.7098 
1.97357 2.23444 15.724 
1.95512 2.23666 15.7193 
1.93664 2.23888 15.7145 
1.91812 2.2411 15.7098 
1.89957 2.24334 15.705 
1.95512 2.2436 15.7193 
1.93664 2.24583 15.7145 
1.91812 2.24806 15.7098 
1.89957 2.2503 15.705 
1.88098 2.25254 15.7002 
1.95512 2.25055 15.7193 
1.93664 2.25278 15.7145 
1.91812 2.25502 15.7098 
1.89957 2.25727 15.705 
1.88098 2.25952 15.7002 
1.95512 2.2575 15.7193 
1.93664 2.25974 15.7145 
1.91812 2.26198 15.7098 
1.89957 2.26424 15.705 
1.88098 2.26649 15.7002 
1.86235 2.26875 15.6954 
1.93664 2.26669 15.7145 
1.91812 2.26894 15.7098 
1.89957 2.2712 15.705 
1.88098 2.27347 15.7002 
1.86235 2.27573 15.6954 
1.84368 2.278 15.6906 
1.93664 2.27364 15.7145 
1.91812 2.2759 15.7098 
1.89957 2.27817 15.705 
1.88098 2.28044 15.7002 
1.86235 2.28271 15.6954 
1.84368 2.28499 15.6906 
1.93664 2.2806 15.7145 
1.91812 2.28286 15.7098 
1.89957 2.28514 15.705 
1.88098 2.28741 15.7002 
1.86235 2.28969 15.6954 
1.84368 2.29198 15.6906 
1.93664 2.28755 15.7145 
1.91812 2.28982 15.7098 
1.89957 2.2921 15.705 
1.88098 2.29439 15.7002 
1.86235 2.29668 15.6954 
1.84368 2.29897 15.6906 
1.82498 2.30127 15.6858 
1.89957 2.29907 15.705 
1.88098 2.30136 15.7002 
1.86235 2.30366 15.6954 
1.84368 2.30596 15.6906 
1.82498 2.30826 15.6858 
1.80624 2.31057 15.681 
1.89957 2.30604 15.705 
1.88098 2.30833 15.7002 
1.86235 2.31064 15.6954 
1.84368 2.31294 15.6906 
1.82498 2.31525 15.6858 
1.80624 2.31757 15.681 
1.89957 2.313 15.705 
1.88098 2.31531 15.7002 
1.86235 2.31762 15.6954 
1.84368 2.31993 15.6906 
1.82498 2.32225 15.6858 
1.80624 2.32457 15.681 
1.78746 2.3269 15.6762 
1.89957 2.31997 15.705 
1.88098 2.32228 15.7002 
1.86235 2.3246 15.6954 
