VERSION .7
FIELDS x y z
SIZE 4 4 4
TYPE F F F
COUNT 1 1 1
WIDTH 1938
HEIGHT 1
VIEWPOINT 0 0 0 1 0 0 0
POINTS 1938
DATA ascii
2.4229 2.51454 18.1623 
2.39967 2.5179 18.1795 
2.49222 2.51382 18.1112 
2.46917 2.51716 18.1282 
2.44607 2.52052 18.1452 
2.4229 2.52389 18.1623 
2.39967 2.52726 18.1795 
2.49222 2.52313 18.1112 
2.46917 2.52649 18.1282 
2.44607 2.52986 18.1452 
2.4229 2.53323 18.1623 
2.39967 2.53662 18.1795 
2.5152 2.52907 18.0942 
2.49222 2.53244 18.1112 
2.46917 2.53581 18.1282 
2.44607 2.53919 18.1452 
2.4229 2.54258 18.1623 
2.39967 2.54598 18.1795 
2.37638 2.54939 18.1966 
2.5152 2.53837 18.0942 
2.49222 2.54175 18.1112 
2.46917 2.54513 18.1282 
2.44607 2.54853 18.1452 
2.4229 2.55193 18.1623 
2.39967 2.55534 18.1795 
2.37638 2.55876 18.1966 
2.5152 2.54767 18.0942 
2.49222 2.55106 18.1112 
2.46917 2.55446 18.1282 
2.44607 2.55786 18.1452 
2.4229 2.56128 18.1623 
2.39967 2.5647 18.1795 
2.37638 2.56814 18.1966 
2.49222 2.56037 18.1112 
2.46917 2.56378 18.1282 
2.44607 2.5672 18.1452 
2.4229 2.57063 18.1623 
2.39967 2.57406 18.1795 
2.37638 2.57751 18.1966 
2.49222 2.56968 18.1112 
2.46917 2.5731 18.1282 
2.44607 2.57653 18.1452 
2.4229 2.57997 18.1623 
2.39967 2.58342 18.1795 
2.37638 2.58688 18.1966 
2.46917 2.58242 18.1282 
2.44607 2.58587 18.1452 
2.4229 2.58932 18.1623 
2.39967 2.59278 18.1795 
2.37638 2.59626 18.1966 
2.46917 2.59175 18.1282 
2.44607 2.5952 18.1452 
2.4229 2.59867 18.1623 
2.39967 2.60214 18.1795 
2.37638 2.60563 18.1966 
2.46917 2.60107 18.1282 
2.44607 2.60454 18.1452 
2.4229 2.60802 18.1623 
2.39967 2.6115 18.1795 
2.37638 2.615 18.1966 
2.46917 2.61039 18.1282 
2.44607 2.61387 18.1452 
2.4229 2.61736 18.1623 
2.39967 2.62086 18.1795 
2.46917 2.61972 18.1282 
2.44607 2.62321 18.1452 
2.4229 2.62671 18.1623 
2.39967 2.63022 18.1795 
2.46917 2.62904 18.1282 
2.44607 2.63254 18.1452 
2.4229 2.63606 18.1623 
2.39967 2.63958 18.1795 
2.46917 2.63836 18.1282 
2.44607 2.64188 18.1452 
2.4229 2.64541 18.1623 
2.39967 2.64895 18.1795 
2.46917 2.64768 18.1282 
2.44607 2.65122 18.1452 
2.4229 2.65476 18.1623 
2.39967 2.65831 18.1795 
2.46917 2.65701 18.1282 
2.44607 2.66055 18.1452 
2.4229 2.6641 18.1623 
2.39967 2.66767 18.1795 
2.46917 2.66633 18.1282 
2.44607 2.66989 18.1452 
2.4229 2.67345 18.1623 
2.39967 2.67703 18.1795 
2.46917 2.67565 18.1282 
2.44607 2.67922 18.1452 
2.4229 2.6828 18.1623 
2.39967 2.68639 18.1795 
2.46917 2.68498 18.1282 
2.44607 2.68856 18.1452 
2.4229 2.69215 18.1623 
2.39967 2.69575 18.1795 
2.46917 2.6943 18.1282 
2.44607 2.69789 18.1452 
2.4229 2.70149 18.1623 
2.39967 2.70511 18.1795 
2.46917 2.70362 18.1282 
2.44607 2.70723 18.1452 
2.4229 2.71084 18.1623 
2.39967 2.71447 18.1795 
2.46917 2.71294 18.1282 
2.44607 2.71656 18.1452 
2.4229 2.72019 18.1623 
2.39967 2.72383 18.1795 
2.46917 2.72227 18.1282 
2.44607 2.7259 18.1452 
2.4229 2.72954 18.1623 
2.39967 2.73319 18.1795 
2.46917 2.73159 18.1282 
2.44607 2.73523 18.1452 
2.4229 2.73888 18.1623 
2.39967 2.74255 18.1795 
2.46917 2.74091 18.1282 
2.44607 2.74457 18.1452 
2.4229 2.74823 18.1623 
2.39967 2.75191 18.1795 
2.46917 2.75024 18.1282 
2.44607 2.7539 18.1452 
2.4229 2.75758 18.1623 
2.39967 2.76127 18.1795 
2.46917 2.75956 18.1282 
2.44607 2.76324 18.1452 
2.4229 2.76693 18.1623 
2.39967 2.77063 18.1795 
2.46917 2.76888 18.1282 
2.44607 2.77257 18.1452 
2.4229 2.77628 18.1623 
2.39967 2.77999 18.1795 
2.46917 2.7782 18.1282 
2.44607 2.78191 18.1452 
2.4229 2.78562 18.1623 
2.39967 2.78935 18.1795 
2.37638 2.79308 18.1966 
2.46917 2.78753 18.1282 
2.44607 2.79124 18.1452 
2.4229 2.79497 18.1623 
2.39967 2.79871 18.1795 
2.37638 2.80246 18.1966 
2.46917 2.79685 18.1282 
2.44607 2.80058 18.1452 
2.4229 2.80432 18.1623 
2.39967 2.80807 18.1795 
2.37638 2.81183 18.1966 
2.35303 2.8156 18.2139 
2.46917 2.80617 18.1282 
2.44607 2.80991 18.1452 
2.4229 2.81367 18.1623 
2.39967 2.81743 18.1795 
2.37638 2.8212 18.1966 
2.35303 2.82498 18.2139 
2.46917 2.8155 18.1282 
2.44607 2.81925 18.1452 
2.4229 2.82301 18.1623 
2.39967 2.82679 18.1795 
2.37638 2.83057 18.1966 
2.35303 2.83437 18.2139 
2.32961 2.83817 18.2312 
2.46917 2.82482 18.1282 
2.44607 2.82859 18.1452 
2.4229 2.83236 18.1623 
2.39967 2.83615 18.1795 
2.35303 2.84375 18.2139 
2.32961 2.84757 18.2312 
2.4229 2.84171 18.1623 
2.39967 2.84551 18.1795 
2.37638 2.84932 18.1966 
2.35303 2.85314 18.2139 
2.32961 2.85697 18.2312 
2.30613 2.86081 18.2485 
2.28259 2.86466 18.2659 
2.4229 2.85106 18.1623 
2.39967 2.85487 18.1795 
2.37638 2.85869 18.1966 
2.35303 2.86253 18.2139 
2.32961 2.86637 18.2312 
2.30613 2.87022 18.2485 
2.28259 2.87409 18.2659 
2.39967 2.86423 18.1795 
2.37638 2.86807 18.1966 
2.35303 2.87191 18.2139 
2.32961 2.87577 18.2312 
2.30613 2.87963 18.2485 
2.28259 2.88351 18.2659 
2.37638 2.87744 18.1966 
2.35303 2.8813 18.2139 
2.32961 2.88516 18.2312 
2.30613 2.88904 18.2485 
2.28259 2.89293 18.2659 
2.25898 2.89683 18.2833 
2.37638 2.88681 18.1966 
2.35303 2.89068 18.2139 
2.32961 2.89456 18.2312 
2.30613 2.89845 18.2485 
2.28259 2.90236 18.2659 
2.25898 2.90627 18.2833 
2.37638 2.89618 18.1966 
2.35303 2.90007 18.2139 
2.32961 2.90396 18.2312 
2.30613 2.90786 18.2485 
2.28259 2.91178 18.2659 
2.25898 2.9157 18.2833 
2.37638 2.90556 18.1966 
2.35303 2.90945 18.2139 
2.32961 2.91336 18.2312 
2.30613 2.91727 18.2485 
2.28259 2.9212 18.2659 
2.25898 2.92514 18.2833 
2.37638 2.91493 18.1966 
2.35303 2.91884 18.2139 
2.32961 2.92276 18.2312 
2.30613 2.92669 18.2485 
2.28259 2.93063 18.2659 
2.25898 2.93458 18.2833 
2.37638 2.9243 18.1966 
2.35303 2.92822 18.2139 
2.32961 2.93215 18.2312 
2.30613 2.9361 18.2485 
2.28259 2.94005 18.2659 
2.25898 2.94401 18.2833 
2.37638 2.93367 18.1966 
2.35303 2.93761 18.2139 
2.32961 2.94155 18.2312 
2.30613 2.94551 18.2485 
2.28259 2.94947 18.2659 
2.25898 2.95345 18.2833 
2.37638 2.94305 18.1966 
2.35303 2.94699 18.2139 
2.32961 2.95095 18.2312 
2.30613 2.95492 18.2485 
2.28259 2.95889 18.2659 
2.25898 2.96288 18.2833 
2.37638 2.95242 18.1966 
2.35303 2.95638 18.2139 
2.32961 2.96035 18.2312 
2.30613 2.96433 18.2485 
2.28259 2.96832 18.2659 
2.25898 2.97232 18.2833 
2.37638 2.96179 18.1966 
2.35303 2.96576 18.2139 
2.32961 2.96975 18.2312 
2.30613 2.97374 18.2485 
2.28259 2.97774 18.2659 
2.25898 2.98176 18.2833 
2.37638 2.97117 18.1966 
2.35303 2.97515 18.2139 
2.32961 2.97914 18.2312 
2.30613 2.98315 18.2485 
2.28259 2.98716 18.2659 
2.25898 2.99119 18.2833 
2.37638 2.98054 18.1966 
2.35303 2.98453 18.2139 
2.32961 2.98854 18.2312 
2.30613 2.99256 18.2485 
2.28259 2.99659 18.2659 
2.25898 3.00063 18.2833 
2.37638 2.98991 18.1966 
2.35303 2.99392 18.2139 
2.32961 2.99794 18.2312 
2.30613 3.00197 18.2485 
2.28259 3.00601 18.2659 
2.25898 3.01006 18.2833 
2.4229 2.99127 18.1623 
2.39967 2.99527 18.1795 
2.37638 2.99928 18.1966 
2.35303 3.00331 18.2139 
2.32961 3.00734 18.2312 
2.30613 3.01138 18.2485 
2.28259 3.01543 18.2659 
2.25898 3.0195 18.2833 
2.4229 3.00062 18.1623 
2.39967 3.00463 18.1795 
2.37638 3.00866 18.1966 
2.35303 3.01269 18.2139 
2.32961 3.01674 18.2312 
2.30613 3.02079 18.2485 
2.28259 3.02486 18.2659 
2.25898 3.02894 18.2833 
2.4229 3.00997 18.1623 
2.39967 3.01399 18.1795 
2.37638 3.01803 18.1966 
2.35303 3.02208 18.2139 
2.32961 3.02613 18.2312 
2.30613 3.0302 18.2485 
2.28259 3.03428 18.2659 
2.4229 3.01932 18.1623 
2.39967 3.02335 18.1795 
2.37638 3.0274 18.1966 
2.35303 3.03146 18.2139 
2.32961 3.03553 18.2312 
2.30613 3.03961 18.2485 
2.28259 3.0437 18.2659 
2.44607 3.02463 18.1452 
2.4229 3.02866 18.1623 
2.39967 3.03271 18.1795 
2.37638 3.03678 18.1966 
2.35303 3.04085 18.2139 
2.32961 3.04493 18.2312 
2.30613 3.04902 18.2485 
2.44607 3.03396 18.1452 
2.4229 3.03801 18.1623 
2.39967 3.04207 18.1795 
2.37638 3.04615 18.1966 
2.35303 3.05023 18.2139 
2.32961 3.05433 18.2312 
2.30613 3.05843 18.2485 
2.46917 3.03924 18.1282 
2.44607 3.0433 18.1452 
2.4229 3.04736 18.1623 
2.39967 3.05143 18.1795 
2.37638 3.05552 18.1966 
2.35303 3.05962 18.2139 
2.32961 3.06373 18.2312 
2.30613 3.06784 18.2485 
2.46917 3.04857 18.1282 
2.44607 3.05263 18.1452 
2.4229 3.05671 18.1623 
2.39967 3.0608 18.1795 
2.37638 3.06489 18.1966 
2.35303 3.069 18.2139 
2.32961 3.07312 18.2312 
2.30613 3.07725 18.2485 
2.46917 3.05789 18.1282 
2.44607 3.06197 18.1452 
2.4229 3.06606 18.1623 
2.39967 3.07016 18.1795 
2.37638 3.07427 18.1966 
2.35303 3.07839 18.2139 
2.32961 3.08252 18.2312 
2.30613 3.08667 18.2485 
2.46917 3.06721 18.1282 
2.44607 3.0713 18.1452 
2.4229 3.0754 18.1623 
2.39967 3.07952 18.1795 
2.37638 3.08364 18.1966 
2.35303 3.08777 18.2139 
2.32961 3.09192 18.2312 
2.30613 3.09608 18.2485 
2.46917 3.07653 18.1282 
2.44607 3.08064 18.1452 
2.4229 3.08475 18.1623 
2.39967 3.08888 18.1795 
2.37638 3.09301 18.1966 
2.35303 3.09716 18.2139 
2.32961 3.10132 18.2312 
2.30613 3.10549 18.2485 
2.49222 3.08175 18.1112 
2.46917 3.08586 18.1282 
2.44607 3.08997 18.1452 
2.4229 3.0941 18.1623 
2.39967 3.09824 18.1795 
2.37638 3.10238 18.1966 
2.35303 3.10654 18.2139 
2.32961 3.11071 18.2312 
2.30613 3.1149 18.2485 
2.49222 3.09106 18.1112 
2.46917 3.09518 18.1282 
2.44607 3.09931 18.1452 
2.4229 3.10345 18.1623 
2.39967 3.1076 18.1795 
2.37638 3.11176 18.1966 
2.35303 3.11593 18.2139 
2.32961 3.12011 18.2312 
2.49222 3.10037 18.1112 
2.46917 3.1045 18.1282 
2.44607 3.10864 18.1452 
2.4229 3.11279 18.1623 
2.39967 3.11696 18.1795 
2.37638 3.12113 18.1966 
2.35303 3.12531 18.2139 
2.32961 3.12951 18.2312 
2.49222 3.10968 18.1112 
2.46917 3.11383 18.1282 
2.44607 3.11798 18.1452 
2.4229 3.12214 18.1623 
2.39967 3.12632 18.1795 
2.37638 3.1305 18.1966 
2.35303 3.1347 18.2139 
2.49222 3.11899 18.1112 
2.46917 3.12315 18.1282 
2.44607 3.12731 18.1452 
2.4229 3.13149 18.1623 
2.39967 3.13568 18.1795 
2.37638 3.13988 18.1966 
2.35303 3.14409 18.2139 
2.56098 3.11587 18.0604 
2.53812 3.12001 18.0773 
2.5152 3.12415 18.0942 
2.49222 3.1283 18.1112 
2.46917 3.13247 18.1282 
2.44607 3.13665 18.1452 
2.4229 3.14084 18.1623 
2.39967 3.14504 18.1795 
2.37638 3.14925 18.1966 
2.56098 3.12515 18.0604 
2.53812 3.12929 18.0773 
2.5152 3.13345 18.0942 
2.49222 3.13762 18.1112 
2.46917 3.14179 18.1282 
2.44607 3.14598 18.1452 
2.4229 3.15019 18.1623 
2.39967 3.1544 18.1795 
2.37638 3.15862 18.1966 
2.53812 3.13858 18.0773 
2.5152 3.14275 18.0942 
2.49222 3.14693 18.1112 
2.46917 3.15112 18.1282 
2.44607 3.15532 18.1452 
2.4229 3.15953 18.1623 
2.39967 3.16376 18.1795 
2.53812 3.14786 18.0773 
2.5152 3.15204 18.0942 
2.49222 3.15624 18.1112 
2.46917 3.16044 18.1282 
2.44607 3.16465 18.1452 
2.4229 3.16888 18.1623 
2.39967 3.17312 18.1795 
2.49222 3.16555 18.1112 
2.46917 3.16976 18.1282 
2.44607 3.17399 18.1452 
2.49222 3.17486 18.1112 
2.46917 3.17909 18.1282 
2.44607 3.18333 18.1452 
1.5649 1.09153 18.8985 
1.53992 1.09307 18.9184 
1.51487 1.09461 18.9384 
1.48975 1.09615 18.9584 
4.46589 1.74415 16.5851 
4.4484 1.7462 16.599 
4.43088 1.74826 16.613 
4.41332 1.75032 16.627 
4.39571 1.75239 16.641 
4.46589 1.75238 16.5851 
4.4484 1.75444 16.599 
4.43088 1.7565 16.613 
4.41332 1.75858 16.627 
4.39571 1.76065 16.641 
4.37806 1.76273 16.6551 
4.36038 1.76482 16.6692 
4.34265 1.76691 16.6833 
4.36038 1.77311 16.6692 
4.34265 1.77521 16.6833 
4.32487 1.77731 16.6975 
4.32487 1.78562 16.6975 
4.30706 1.78774 16.7117 
4.2892 1.79819 16.726 
4.2713 1.80033 16.7402 
4.25336 1.80248 16.7546 
4.25336 1.81082 16.7546 
4.23537 1.81298 16.7689 
4.21734 1.81515 16.7833 
4.19927 1.81732 16.7977 
4.23537 1.82134 16.7689 
4.21734 1.82352 16.7833 
4.19927 1.8257 16.7977 
4.18116 1.82788 16.8121 
4.163 1.83008 16.8266 
4.163 1.83847 16.8266 
4.1448 1.84068 16.8411 
4.12655 1.84289 16.8557 
4.12655 1.85131 16.8557 
4.10826 1.85353 16.8703 
4.08993 1.85577 16.8849 
4.10826 1.86196 16.8703 
4.08993 1.8642 16.8849 
4.07155 1.86645 16.8995 
4.08993 1.87264 16.8849 
4.07155 1.8749 16.8995 
4.05313 1.87716 16.9142 
4.05313 1.88562 16.9142 
4.03466 1.8879 16.929 
4.01615 1.89019 16.9437 
4.01615 1.89866 16.9437 
3.99759 1.90096 16.9585 
1.23458 2.2437 19.1619 
3.99759 1.90945 16.9585 
3.97899 1.91177 16.9734 
3.96034 1.91409 16.9882 
3.97899 1.92026 16.9734 
3.96034 1.9226 16.9882 
3.94165 1.92494 17.0031 
3.96034 1.93111 16.9882 
3.94165 1.93345 17.0031 
3.92291 1.93581 17.0181 
3.92291 1.94434 17.0181 
3.90413 1.94671 17.0331 
3.8853 1.95764 17.0481 
3.80952 1.98443 17.1085 
3.7522 1.99176 17.1542 
2.81699 2.12053 17.9 
3.57765 2.03153 17.2934 
3.49882 2.0417 17.3563 
2.94529 2.11312 17.7977 
2.92405 2.11586 17.8146 
2.90275 2.11861 17.8316 
2.88139 2.12136 17.8487 
2.85998 2.12413 17.8657 
2.83851 2.1269 17.8828 
2.81699 2.12967 17.9 
3.4591 2.05561 17.3879 
3.43917 2.05819 17.4038 
3.41919 2.06078 17.4198 
3.39915 2.06338 17.4358 
3.37907 2.06598 17.4518 
3.35894 2.06859 17.4678 
3.33875 2.0712 17.4839 
3.31851 2.07382 17.5001 
3.29823 2.07645 17.5162 
3.27789 2.07909 17.5325 
3.2575 2.08173 17.5487 
3.23705 2.08438 17.565 
3.21656 2.08704 17.5814 
3.19601 2.0897 17.5978 
3.17541 2.09237 17.6142 
3.15476 2.09504 17.6307 
3.09248 2.10311 17.6803 
3.07162 2.10582 17.697 
3.0507 2.10853 17.7136 
3.02973 2.11125 17.7304 
3.0087 2.11397 17.7471 
2.98762 2.1167 17.7639 
2.96648 2.11944 17.7808 
2.94529 2.12219 17.7977 
2.92405 2.12494 17.8146 
2.90275 2.1277 17.8316 
2.88139 2.13047 17.8487 
2.85998 2.13324 17.8657 
2.83851 2.13603 17.8828 
2.81699 2.13881 17.9 
2.79541 2.14161 17.9172 
2.77377 2.14441 17.9345 
3.39915 2.07219 17.4358 
3.37907 2.07481 17.4518 
3.35894 2.07743 17.4678 
3.33875 2.08005 17.4839 
3.31851 2.08269 17.5001 
3.29823 2.08533 17.5162 
3.27789 2.08797 17.5325 
3.2575 2.09063 17.5487 
3.23705 2.09329 17.565 
3.21656 2.09596 17.5814 
3.19601 2.09863 17.5978 
3.17541 2.10131 17.6142 
3.15476 2.104 17.6307 
3.13405 2.10669 17.6472 
3.1133 2.10939 17.6637 
3.09248 2.1121 17.6803 
3.07162 2.11482 17.697 
3.0507 2.11754 17.7136 
3.02973 2.12027 17.7304 
3.0087 2.12301 17.7471 
2.98762 2.12575 17.7639 
2.96648 2.1285 17.7808 
2.94529 2.13126 17.7977 
2.92405 2.13402 17.8146 
2.90275 2.13679 17.8316 
2.88139 2.13957 17.8487 
2.85998 2.14236 17.8657 
2.83851 2.14515 17.8828 
2.81699 2.14795 17.9 
2.79541 2.15076 17.9172 
2.77377 2.15358 17.9345 
2.75208 2.1564 17.9518 
3.1133 2.11837 17.6637 
3.02973 2.12929 17.7304 
3.0087 2.13204 17.7471 
2.98762 2.13479 17.7639 
2.88139 2.14868 17.8487 
2.85998 2.15148 17.8657 
2.83851 2.15428 17.8828 
2.81699 2.15709 17.9 
2.79541 2.15992 17.9172 
2.77377 2.16274 17.9345 
2.75208 2.16558 17.9518 
2.85998 2.16059 17.8657 
2.83851 2.16341 17.8828 
2.81699 2.16623 17.9 
2.79541 2.16907 17.9172 
2.77377 2.17191 17.9345 
2.75208 2.17475 17.9518 
2.73033 2.17761 17.9691 
2.92405 2.16126 17.8146 
2.90275 2.16407 17.8316 
2.88139 2.16689 17.8487 
2.85998 2.16971 17.8657 
2.83851 2.17254 17.8828 
2.81699 2.17538 17.9 
2.79541 2.17822 17.9172 
2.77377 2.18107 17.9345 
2.75208 2.18393 17.9518 
2.73033 2.1868 17.9691 
2.70852 2.18967 17.9865 
2.92405 2.17035 17.8146 
2.90275 2.17317 17.8316 
2.88139 2.17599 17.8487 
2.85998 2.17883 17.8657 
2.83851 2.18167 17.8828 
2.81699 2.18452 17.9 
2.79541 2.18737 17.9172 
2.77377 2.19024 17.9345 
2.75208 2.19311 17.9518 
2.73033 2.19599 17.9691 
2.70852 2.19887 17.9865 
2.68665 2.20177 18.0039 
2.79541 2.19652 17.9172 
2.77377 2.1994 17.9345 
2.75208 2.20228 17.9518 
2.73033 2.20517 17.9691 
2.70852 2.20807 17.9865 
2.68665 2.21098 18.0039 
2.66473 2.21389 18.0214 
2.64275 2.21681 18.039 
2.79541 2.20568 17.9172 
2.77377 2.20856 17.9345 
2.75208 2.21146 17.9518 
2.73033 2.21436 17.9691 
2.70852 2.21727 17.9865 
2.68665 2.22019 18.0039 
2.66473 2.22312 18.0214 
2.64275 2.22605 18.039 
2.75208 2.22063 17.9518 
2.73033 2.22355 17.9691 
2.70852 2.22647 17.9865 
2.68665 2.2294 18.0039 
2.66473 2.23234 18.0214 
2.64275 2.23529 18.039 
2.62071 2.23824 18.0565 
2.75208 2.22981 17.9518 
2.73033 2.23274 17.9691 
2.70852 2.23567 17.9865 
2.68665 2.23861 18.0039 
2.66473 2.24156 18.0214 
2.64275 2.24452 18.039 
2.62071 2.24749 18.0565 
2.59862 2.25046 18.0742 
2.70852 2.24487 17.9865 
2.68665 2.24783 18.0039 
2.66473 2.25079 18.0214 
2.64275 2.25376 18.039 
2.62071 2.25674 18.0565 
2.59862 2.25972 18.0742 
2.68665 2.25704 18.0039 
2.66473 2.26001 18.0214 
2.64275 2.263 18.039 
2.62071 2.26599 18.0565 
2.59862 2.26898 18.0742 
2.57646 2.27199 18.0918 
2.66473 2.26924 18.0214 
2.64275 2.27223 18.039 
2.62071 2.27523 18.0565 
2.59862 2.27825 18.0742 
2.57646 2.28126 18.0918 
2.55425 2.28429 18.1095 
2.66473 2.27846 18.0214 
2.64275 2.28147 18.039 
2.62071 2.28448 18.0565 
2.59862 2.28751 18.0742 
2.57646 2.29054 18.0918 
2.55425 2.29358 18.1095 
2.66473 2.28769 18.0214 
2.64275 2.29071 18.039 
2.62071 2.29373 18.0565 
2.59862 2.29677 18.0742 
2.57646 2.29981 18.0918 
2.55425 2.30286 18.1095 
2.66473 2.29691 18.0214 
2.64275 2.29994 18.039 
2.62071 2.30298 18.0565 
2.59862 2.30603 18.0742 
2.57646 2.30908 18.0918 
2.55425 2.31215 18.1095 
2.53197 2.31522 18.1273 
2.62071 2.31223 18.0565 
2.59862 2.31529 18.0742 
2.57646 2.31836 18.0918 
2.55425 2.32143 18.1095 
2.53197 2.32452 18.1273 
2.50964 2.32761 18.1451 
2.62071 2.32148 18.0565 
2.59862 2.32455 18.0742 
2.57646 2.32763 18.0918 
2.55425 2.33072 18.1095 
2.53197 2.33381 18.1273 
2.50964 2.33692 18.1451 
2.62071 2.33073 18.0565 
2.59862 2.33381 18.0742 
2.57646 2.3369 18.0918 
2.55425 2.34 18.1095 
2.53197 2.34311 18.1273 
2.50964 2.34623 18.1451 
2.48725 2.34935 18.163 
2.62071 2.33998 18.0565 
2.59862 2.34307 18.0742 
2.57646 2.34618 18.0918 
2.55425 2.34929 18.1095 
2.53197 2.35241 18.1273 
2.50964 2.35554 18.1451 
2.48725 2.35868 18.163 
2.59862 2.35233 18.0742 
2.57646 2.35545 18.0918 
2.55425 2.35858 18.1095 
2.53197 2.36171 18.1273 
2.50964 2.36485 18.1451 
2.48725 2.368 18.163 
2.4648 2.37116 18.1809 
2.59862 2.3616 18.0742 
2.57646 2.36472 18.0918 
2.55425 2.36786 18.1095 
2.53197 2.37101 18.1273 
2.50964 2.37416 18.1451 
2.48725 2.37732 18.163 
2.4648 2.38049 18.1809 
2.57646 2.374 18.0918 
2.55425 2.37715 18.1095 
2.53197 2.3803 18.1273 
2.50964 2.38347 18.1451 
2.48725 2.38664 18.163 
2.4648 2.38983 18.1809 
2.57646 2.38327 18.0918 
2.55425 2.38643 18.1095 
2.53197 2.3896 18.1273 
2.50964 2.39278 18.1451 
2.48725 2.39597 18.163 
2.4648 2.39916 18.1809 
2.57646 2.39254 18.0918 
2.55425 2.39572 18.1095 
2.53197 2.3989 18.1273 
2.50964 2.40209 18.1451 
2.48725 2.40529 18.163 
2.4648 2.4085 18.1809 
2.57646 2.40182 18.0918 
2.55425 2.405 18.1095 
2.53197 2.4082 18.1273 
2.50964 2.4114 18.1451 
2.48725 2.41461 18.163 
2.4648 2.41783 18.1809 
2.44229 2.42106 18.1988 
2.53197 2.4175 18.1273 
2.50964 2.42071 18.1451 
2.48725 2.42394 18.163 
2.4648 2.42717 18.1809 
2.44229 2.43041 18.1988 
2.53197 2.42679 18.1273 
2.50964 2.43002 18.1451 
2.48725 2.43326 18.163 
2.4648 2.4365 18.1809 
2.44229 2.43976 18.1988 
2.41972 2.44302 18.2168 
2.53197 2.43609 18.1273 
2.50964 2.43933 18.1451 
2.48725 2.44258 18.163 
2.4648 2.44584 18.1809 
2.44229 2.44911 18.1988 
2.41972 2.45238 18.2168 
2.53197 2.44539 18.1273 
2.50964 2.44864 18.1451 
2.48725 2.4519 18.163 
2.4648 2.45517 18.1809 
2.44229 2.45845 18.1988 
2.41972 2.46174 18.2168 
2.48725 2.46123 18.163 
2.4648 2.46451 18.1809 
2.44229 2.4678 18.1988 
2.41972 2.4711 18.2168 
2.48725 2.47055 18.163 
2.4648 2.47385 18.1809 
2.44229 2.47715 18.1988 
2.41972 2.48046 18.2168 
2.48725 2.47987 18.163 
2.4648 2.48318 18.1809 
2.44229 2.4865 18.1988 
2.41972 2.48982 18.2168 
2.48725 2.4892 18.163 
2.4648 2.49252 18.1809 
2.44229 2.49584 18.1988 
2.41972 2.49918 18.2168 
2.48725 2.49852 18.163 
2.4648 2.50185 18.1809 
2.44229 2.50519 18.1988 
2.41972 2.50854 18.2168 
2.48725 2.50784 18.163 
2.4648 2.51119 18.1809 
2.44229 2.51454 18.1988 
2.41972 2.5179 18.2168 
2.48725 2.51716 18.163 
2.4648 2.52052 18.1809 
2.44229 2.52389 18.1988 
2.41972 2.52726 18.2168 
2.48725 2.52649 18.163 
2.4648 2.52986 18.1809 
2.44229 2.53323 18.1988 
2.41972 2.53662 18.2168 
5.27488 2.11592 15.9399 
2.48725 2.53581 18.163 
2.4648 2.53919 18.1809 
2.44229 2.54258 18.1988 
2.41972 2.54598 18.2168 
2.39708 2.54939 18.2349 
2.37439 2.55281 18.253 
5.27488 2.1237 15.9399 
2.48725 2.54513 18.163 
2.4648 2.54853 18.1809 
2.44229 2.55193 18.1988 
2.41972 2.55534 18.2168 
2.39708 2.55876 18.2349 
2.37439 2.5622 18.253 
2.48725 2.55446 18.163 
2.4648 2.55786 18.1809 
2.44229 2.56128 18.1988 
2.41972 2.5647 18.2168 
2.39708 2.56814 18.2349 
2.37439 2.57158 18.253 
2.48725 2.56378 18.163 
2.4648 2.5672 18.1809 
2.44229 2.57063 18.1988 
2.41972 2.57406 18.2168 
2.39708 2.57751 18.2349 
2.37439 2.58097 18.253 
2.48725 2.5731 18.163 
2.4648 2.57653 18.1809 
2.44229 2.57997 18.1988 
2.41972 2.58342 18.2168 
2.39708 2.58688 18.2349 
2.37439 2.59035 18.253 
2.48725 2.58242 18.163 
2.4648 2.58587 18.1809 
2.44229 2.58932 18.1988 
2.41972 2.59278 18.2168 
2.39708 2.59626 18.2349 
2.37439 2.59974 18.253 
2.48725 2.59175 18.163 
2.4648 2.5952 18.1809 
2.44229 2.59867 18.1988 
2.41972 2.60214 18.2168 
2.37439 2.60912 18.253 
2.48725 2.60107 18.163 
2.4648 2.60454 18.1809 
2.44229 2.60802 18.1988 
2.41972 2.6115 18.2168 
2.37439 2.61851 18.253 
2.48725 2.61039 18.163 
2.4648 2.61387 18.1809 
2.44229 2.61736 18.1988 
2.41972 2.62086 18.2168 
2.39708 2.62437 18.2349 
2.37439 2.62789 18.253 
2.48725 2.61972 18.163 
2.4648 2.62321 18.1809 
2.44229 2.62671 18.1988 
2.41972 2.63022 18.2168 
2.39708 2.63375 18.2349 
2.37439 2.63728 18.253 
2.48725 2.62904 18.163 
2.4648 2.63254 18.1809 
2.44229 2.63606 18.1988 
2.41972 2.63958 18.2168 
2.39708 2.64312 18.2349 
2.37439 2.64666 18.253 
2.48725 2.63836 18.163 
2.4648 2.64188 18.1809 
2.44229 2.64541 18.1988 
2.41972 2.64895 18.2168 
2.39708 2.65249 18.2349 
2.37439 2.65605 18.253 
2.48725 2.64768 18.163 
2.4648 2.65122 18.1809 
2.44229 2.65476 18.1988 
2.41972 2.65831 18.2168 
2.39708 2.66186 18.2349 
2.37439 2.66543 18.253 
2.48725 2.65701 18.163 
2.4648 2.66055 18.1809 
2.44229 2.6641 18.1988 
2.41972 2.66767 18.2168 
2.39708 2.67124 18.2349 
2.37439 2.67482 18.253 
2.4648 2.66989 18.1809 
2.44229 2.67345 18.1988 
2.41972 2.67703 18.2168 
2.39708 2.68061 18.2349 
2.4648 2.67922 18.1809 
2.44229 2.6828 18.1988 
2.41972 2.68639 18.2168 
2.39708 2.68998 18.2349 
2.41972 2.69575 18.2168 
2.41972 2.70511 18.2168 
2.41972 2.71447 18.2168 
2.41972 2.72383 18.2168 
2.41972 2.73319 18.2168 
2.41972 2.74255 18.2168 
2.41972 2.75191 18.2168 
2.41972 2.76127 18.2168 
2.41972 2.77063 18.2168 
2.41972 2.77999 18.2168 
2.41972 2.78935 18.2168 
2.41972 2.79871 18.2168 
2.41972 2.80807 18.2168 
2.39708 2.81183 18.2349 
2.41972 2.81743 18.2168 
2.39708 2.8212 18.2349 
2.39708 2.83057 18.2349 
2.37439 2.83437 18.253 
2.39708 2.83995 18.2349 
2.37439 2.84375 18.253 
2.39708 2.84932 18.2349 
2.37439 2.85314 18.253 
2.35164 2.85697 18.2711 
2.32882 2.86081 18.2893 
2.30595 2.86466 18.3076 
2.28301 2.86852 18.3258 
2.39708 2.85869 18.2349 
2.37439 2.86253 18.253 
2.35164 2.86637 18.2711 
2.32882 2.87022 18.2893 
2.30595 2.87409 18.3076 
2.28301 2.87796 18.3258 
2.37439 2.87191 18.253 
2.35164 2.87577 18.2711 
2.32882 2.87963 18.2893 
2.30595 2.88351 18.3076 
2.28301 2.8874 18.3258 
2.26001 2.89129 18.3442 
2.37439 2.8813 18.253 
2.35164 2.88516 18.2711 
2.32882 2.88904 18.2893 
2.30595 2.89293 18.3076 
2.28301 2.89683 18.3258 
2.26001 2.90074 18.3442 
2.23695 2.90466 18.3626 
2.37439 2.89068 18.253 
2.35164 2.89456 18.2711 
2.32882 2.89845 18.2893 
2.30595 2.90236 18.3076 
2.28301 2.90627 18.3258 
2.26001 2.91019 18.3442 
2.23695 2.91412 18.3626 
2.35164 2.90396 18.2711 
2.32882 2.90786 18.2893 
2.30595 2.91178 18.3076 
2.28301 2.9157 18.3258 
2.26001 2.91964 18.3442 
2.23695 2.92359 18.3626 
2.21382 2.92754 18.381 
2.35164 2.91336 18.2711 
2.32882 2.91727 18.2893 
2.30595 2.9212 18.3076 
2.28301 2.92514 18.3258 
2.26001 2.92909 18.3442 
2.23695 2.93305 18.3626 
2.21382 2.93702 18.381 
2.19064 2.941 18.3995 
2.35164 2.92276 18.2711 
2.32882 2.92669 18.2893 
2.30595 2.93063 18.3076 
2.28301 2.93458 18.3258 
2.26001 2.93854 18.3442 
2.23695 2.94251 18.3626 
2.21382 2.94649 18.381 
2.19064 2.95048 18.3995 
2.35164 2.93215 18.2711 
2.32882 2.9361 18.2893 
2.30595 2.94005 18.3076 
2.28301 2.94401 18.3258 
2.26001 2.94799 18.3442 
2.23695 2.95197 18.3626 
2.21382 2.95597 18.381 
2.19064 2.95997 18.3995 
2.16738 2.96399 18.4181 
2.35164 2.94155 18.2711 
2.32882 2.94551 18.2893 
2.30595 2.94947 18.3076 
2.28301 2.95345 18.3258 
2.26001 2.95743 18.3442 
2.23695 2.96143 18.3626 
2.21382 2.96544 18.381 
2.19064 2.96946 18.3995 
2.16738 2.97349 18.4181 
2.30595 2.95889 18.3076 
2.28301 2.96288 18.3258 
2.26001 2.96688 18.3442 
2.23695 2.97089 18.3626 
2.21382 2.97491 18.381 
2.19064 2.97895 18.3995 
2.30595 2.96832 18.3076 
2.28301 2.97232 18.3258 
2.26001 2.97633 18.3442 
2.23695 2.98035 18.3626 
2.21382 2.98439 18.381 
2.19064 2.98843 18.3995 
2.30595 2.97774 18.3076 
2.28301 2.98176 18.3258 
2.26001 2.98578 18.3442 
2.23695 2.98982 18.3626 
2.21382 2.99386 18.381 
2.19064 2.99792 18.3995 
2.30595 2.98716 18.3076 
2.28301 2.99119 18.3258 
2.26001 2.99523 18.3442 
2.23695 2.99928 18.3626 
2.21382 3.00334 18.381 
2.19064 3.00741 18.3995 
2.30595 2.99659 18.3076 
2.28301 3.00063 18.3258 
2.26001 3.00468 18.3442 
2.23695 3.00874 18.3626 
2.21382 3.01281 18.381 
2.19064 3.01689 18.3995 
2.30595 3.00601 18.3076 
2.28301 3.01006 18.3258 
2.26001 3.01413 18.3442 
2.23695 3.0182 18.3626 
2.21382 3.02229 18.381 
2.19064 3.02638 18.3995 
2.32882 3.01138 18.2893 
2.30595 3.01543 18.3076 
2.28301 3.0195 18.3258 
2.26001 3.02357 18.3442 
2.23695 3.02766 18.3626 
2.21382 3.03176 18.381 
2.19064 3.03587 18.3995 
2.32882 3.02079 18.2893 
2.30595 3.02486 18.3076 
2.28301 3.02894 18.3258 
2.26001 3.03302 18.3442 
2.23695 3.03712 18.3626 
2.21382 3.04123 18.381 
2.19064 3.04536 18.3995 
2.32882 3.0302 18.2893 
2.30595 3.03428 18.3076 
2.28301 3.03837 18.3258 
2.26001 3.04247 18.3442 
2.23695 3.04658 18.3626 
2.21382 3.05071 18.381 
2.35164 3.03553 18.2711 
2.32882 3.03961 18.2893 
2.30595 3.0437 18.3076 
2.28301 3.04781 18.3258 
2.26001 3.05192 18.3442 
2.23695 3.05605 18.3626 
2.21382 3.06018 18.381 
2.35164 3.04493 18.2711 
2.32882 3.04902 18.2893 
2.30595 3.05313 18.3076 
2.28301 3.05724 18.3258 
2.26001 3.06137 18.3442 
2.23695 3.06551 18.3626 
2.21382 3.06966 18.381 
2.35164 3.05433 18.2711 
2.32882 3.05843 18.2893 
2.30595 3.06255 18.3076 
2.28301 3.06668 18.3258 
2.26001 3.07082 18.3442 
2.23695 3.07497 18.3626 
2.21382 3.07913 18.381 
2.39708 3.05552 18.2349 
2.37439 3.05962 18.253 
2.35164 3.06373 18.2711 
2.32882 3.06784 18.2893 
2.30595 3.07197 18.3076 
2.28301 3.07611 18.3258 
2.26001 3.08027 18.3442 
2.23695 3.08443 18.3626 
2.21382 3.0886 18.381 
2.39708 3.06489 18.2349 
2.37439 3.069 18.253 
2.35164 3.07312 18.2711 
2.32882 3.07725 18.2893 
2.30595 3.0814 18.3076 
2.28301 3.08555 18.3258 
2.26001 3.08972 18.3442 
2.23695 3.09389 18.3626 
2.21382 3.09808 18.381 
2.41972 3.07016 18.2168 
2.39708 3.07427 18.2349 
2.37439 3.07839 18.253 
2.35164 3.08252 18.2711 
2.32882 3.08667 18.2893 
2.30595 3.09082 18.3076 
2.28301 3.09499 18.3258 
2.26001 3.09916 18.3442 
2.23695 3.10335 18.3626 
2.41972 3.07952 18.2168 
2.39708 3.08364 18.2349 
2.37439 3.08777 18.253 
2.35164 3.09192 18.2711 
2.32882 3.09608 18.2893 
2.30595 3.10024 18.3076 
2.28301 3.10442 18.3258 
2.26001 3.10861 18.3442 
2.23695 3.11281 18.3626 
2.41972 3.08888 18.2168 
2.39708 3.09301 18.2349 
2.37439 3.09716 18.253 
2.35164 3.10132 18.2711 
2.32882 3.10549 18.2893 
2.30595 3.10967 18.3076 
2.28301 3.11386 18.3258 
2.26001 3.11806 18.3442 
2.23695 3.12228 18.3626 
2.41972 3.09824 18.2168 
2.39708 3.10238 18.2349 
2.37439 3.10654 18.253 
2.35164 3.11071 18.2711 
2.32882 3.1149 18.2893 
2.30595 3.11909 18.3076 
2.28301 3.12329 18.3258 
2.26001 3.12751 18.3442 
2.23695 3.13174 18.3626 
2.44229 3.10345 18.1988 
2.41972 3.1076 18.2168 
2.39708 3.11176 18.2349 
2.37439 3.11593 18.253 
2.35164 3.12011 18.2711 
2.32882 3.12431 18.2893 
2.30595 3.12851 18.3076 
2.28301 3.13273 18.3258 
2.26001 3.13696 18.3442 
2.23695 3.1412 18.3626 
2.44229 3.11279 18.1988 
2.41972 3.11696 18.2168 
2.39708 3.12113 18.2349 
2.37439 3.12531 18.253 
2.35164 3.12951 18.2711 
2.32882 3.13372 18.2893 
2.30595 3.13794 18.3076 
2.28301 3.14217 18.3258 
2.26001 3.14641 18.3442 
2.23695 3.15066 18.3626 
2.41972 3.12632 18.2168 
2.39708 3.1305 18.2349 
2.37439 3.1347 18.253 
2.35164 3.13891 18.2711 
2.32882 3.14313 18.2893 
2.30595 3.14736 18.3076 
2.28301 3.1516 18.3258 
2.41972 3.13568 18.2168 
2.39708 3.13988 18.2349 
2.37439 3.14409 18.253 
2.35164 3.14831 18.2711 
2.32882 3.15254 18.2893 
2.30595 3.15678 18.3076 
2.28301 3.16104 18.3258 
2.44229 3.14084 18.1988 
2.41972 3.14504 18.2168 
2.39708 3.14925 18.2349 
2.37439 3.15347 18.253 
2.35164 3.1577 18.2711 
2.32882 3.16195 18.2893 
2.30595 3.16621 18.3076 
2.44229 3.15019 18.1988 
2.41972 3.1544 18.2168 
2.39708 3.15862 18.2349 
2.37439 3.16286 18.253 
2.35164 3.1671 18.2711 
2.32882 3.17136 18.2893 
2.44229 3.15953 18.1988 
2.41972 3.16376 18.2168 
2.39708 3.16799 18.2349 
2.37439 3.17224 18.253 
2.35164 3.1765 18.2711 
2.32882 3.18077 18.2893 
2.44229 3.16888 18.1988 
2.41972 3.17312 18.2168 
2.39708 3.17737 18.2349 
2.37439 3.18163 18.253 
2.35164 3.1859 18.2711 
2.32882 3.19018 18.2893 
2.4648 3.17399 18.1809 
2.44229 3.17823 18.1988 
2.41972 3.18248 18.2168 
2.39708 3.18674 18.2349 
2.37439 3.19101 18.253 
2.35164 3.1953 18.2711 
2.44229 3.18758 18.1988 
2.41972 3.19184 18.2168 
2.39708 3.19611 18.2349 
2.37439 3.2004 18.253 
2.35164 3.20469 18.2711 
2.39708 3.20548 18.2349 
2.37439 3.20978 18.253 
2.39708 3.21486 18.2349 
1.63657 1.09 18.9458 
1.61242 1.09153 18.9666 
1.5882 1.09307 18.9874 
1.56391 1.09461 19.0083 
1.53956 1.09615 19.0293 
1.51513 1.0977 19.0503 
4.42487 1.74415 16.5463 
4.40792 1.7462 16.5609 
4.39093 1.74826 16.5755 
4.3739 1.75032 16.5902 
4.42487 1.75238 16.5463 
4.40792 1.75444 16.5609 
4.39093 1.7565 16.5755 
4.3739 1.75858 16.5902 
4.35684 1.76065 16.6048 
4.33973 1.76273 16.6196 
4.33973 1.77101 16.6196 
4.32258 1.77311 16.6343 
4.32258 1.78139 16.6343 
4.30539 1.7835 16.6491 
4.28816 1.78562 16.6639 
4.27089 1.78774 16.6788 
4.27089 1.79606 16.6788 
4.25358 1.79819 16.6937 
4.23622 1.80033 16.7086 
4.21883 1.80248 16.7236 
4.23622 1.80867 16.7086 
4.21883 1.81082 16.7236 
4.20139 1.82134 16.7386 
4.18391 1.82352 16.7537 
4.16639 1.8257 16.7687 
4.14883 1.82788 16.7838 
4.18391 1.83188 16.7537 
4.16639 1.83407 16.7687 
4.14883 1.83627 16.7838 
4.13123 1.83847 16.799 
4.11358 1.84068 16.8142 
4.11358 1.84908 16.8142 
4.09589 1.85131 16.8294 
4.07816 1.85353 16.8447 
4.09589 1.85972 16.8294 
4.07816 1.86196 16.8447 
4.06038 1.8642 16.86 
4.07816 1.87039 16.8447 
4.06038 1.87264 16.86 
4.04257 1.8749 16.8753 
4.02471 1.87716 16.8907 
4.04257 1.88334 16.8753 
4.02471 1.88562 16.8907 
4.0068 1.8879 16.9061 
3.98886 1.89019 16.9215 
3.98886 1.89866 16.9215 
3.97087 1.90096 16.937 
3.95283 1.90327 16.9525 
3.97087 1.90945 16.937 
3.95283 1.91177 16.9525 
3.93475 1.91409 16.9681 
3.95283 1.92026 16.9525 
3.93475 1.9226 16.9681 
3.91663 1.92494 16.9837 
3.93475 1.93111 16.9681 
3.91663 1.93345 16.9837 
3.89847 1.93581 16.9993 
3.89847 1.94434 16.9993 
3.88026 1.94671 17.015 
3.862 1.95764 17.0307 
3.8437 1.96003 17.0464 
2.84716 2.09038 17.904 
2.82629 2.09311 17.922 
3.8437 1.96859 17.0464 
3.82536 1.971 17.0622 
3.80697 1.97341 17.078 
3.78854 1.97584 17.0939 
2.93008 2.08862 17.8326 
2.86797 2.09678 17.8861 
2.84716 2.09951 17.904 
2.82629 2.10225 17.922 
2.80537 2.105 17.94 
3.80697 1.98199 17.078 
3.78854 1.98443 17.0939 
3.71435 1.99422 17.1577 
3.69568 1.99668 17.1738 
3.67697 1.99915 17.1899 
2.95068 2.09498 17.8149 
2.93008 2.0977 17.8326 
2.90943 2.10042 17.8504 
2.88873 2.10316 17.8682 
2.86797 2.10589 17.8861 
2.84716 2.10864 17.904 
2.82629 2.11139 17.922 
2.80537 2.11415 17.94 
2.78439 2.11692 17.958 
2.74227 2.12248 17.9943 
2.93008 2.10678 17.8326 
2.90943 2.10952 17.8504 
2.88873 2.11226 17.8682 
2.86797 2.11501 17.8861 
2.84716 2.11777 17.904 
2.82629 2.12053 17.922 
2.80537 2.12331 17.94 
2.78439 2.12609 17.958 
2.74227 2.13167 17.9943 
2.72113 2.13447 18.0125 
3.56374 2.03153 17.2873 
3.54471 2.03406 17.3037 
3.52562 2.0366 17.3201 
3.50649 2.03915 17.3366 
3.48731 2.0417 17.3531 
3.46809 2.04426 17.3697 
3.44881 2.04682 17.3863 
3.42948 2.04939 17.4029 
3.41011 2.05197 17.4196 
3.39069 2.05456 17.4363 
3.37122 2.05715 17.453 
3.3517 2.05975 17.4698 
3.33213 2.06235 17.4867 
3.27312 2.0702 17.5374 
3.21367 2.07812 17.5886 
3.19375 2.08077 17.6057 
3.17378 2.08343 17.6229 
3.15375 2.08609 17.6402 
3.05287 2.09952 17.727 
2.93008 2.11586 17.8326 
2.90943 2.11861 17.8504 
2.88873 2.12136 17.8682 
2.86797 2.12413 17.8861 
2.84716 2.1269 17.904 
2.82629 2.12967 17.922 
2.80537 2.13246 17.94 
2.78439 2.13525 17.958 
2.76336 2.13805 17.9761 
2.74227 2.14086 17.9943 
2.72113 2.14367 18.0125 
3.42948 2.05819 17.4029 
3.41011 2.06078 17.4196 
3.39069 2.06338 17.4363 
3.37122 2.06598 17.453 
3.3517 2.06859 17.4698 
3.33213 2.0712 17.4867 
3.31251 2.07382 17.5035 
3.29284 2.07645 17.5205 
3.27312 2.07909 17.5374 
3.25336 2.08173 17.5545 
3.23354 2.08438 17.5715 
3.21367 2.08704 17.5886 
3.19375 2.0897 17.6057 
3.17378 2.09237 17.6229 
3.15375 2.09504 17.6402 
3.13368 2.09773 17.6574 
3.07315 2.10582 17.7095 
3.05287 2.10853 17.727 
2.80537 2.14161 17.94 
2.78439 2.14441 17.958 
2.76336 2.14723 17.9761 
2.74227 2.15004 17.9943 
2.72113 2.15287 18.0125 
2.69993 2.1557 18.0307 
2.80537 2.15076 17.94 
2.78439 2.15358 17.958 
2.76336 2.1564 17.9761 
2.74227 2.15923 17.9943 
2.72113 2.16207 18.0125 
2.69993 2.16492 18.0307 
2.80537 2.15992 17.94 
2.78439 2.16274 17.958 
2.76336 2.16558 17.9761 
2.74227 2.16842 17.9943 
2.72113 2.17127 18.0125 
2.69993 2.17413 18.0307 
2.67868 2.17699 18.049 
2.65737 2.17987 18.0673 
2.78439 2.17191 17.958 
2.76336 2.17475 17.9761 
2.74227 2.17761 17.9943 
2.72113 2.18047 18.0125 
2.69993 2.18334 18.0307 
2.67868 2.18622 18.049 
2.65737 2.1891 18.0673 
2.76336 2.18393 17.9761 
2.74227 2.1868 17.9943 
2.72113 2.18967 18.0125 
2.69993 2.19255 18.0307 
2.67868 2.19544 18.049 
2.65737 2.19834 18.0673 
2.63601 2.20124 18.0857 
2.61458 2.20416 18.1042 
2.76336 2.19311 17.9761 
2.74227 2.19599 17.9943 
2.72113 2.19887 18.0125 
2.69993 2.20177 18.0307 
2.67868 2.20467 18.049 
2.65737 2.20758 18.0673 
2.63601 2.21049 18.0857 
2.61458 2.21342 18.1042 
2.74227 2.20517 17.9943 
2.72113 2.20807 18.0125 
2.69993 2.21098 18.0307 
2.67868 2.21389 18.049 
2.65737 2.21681 18.0673 
2.63601 2.21974 18.0857 
2.61458 2.22268 18.1042 
2.72113 2.21727 18.0125 
2.69993 2.22019 18.0307 
2.67868 2.22312 18.049 
2.65737 2.22605 18.0673 
2.63601 2.22899 18.0857 
2.61458 2.23194 18.1042 
2.5931 2.2349 18.1226 
2.67868 2.23234 18.049 
2.65737 2.23529 18.0673 
2.63601 2.23824 18.0857 
2.61458 2.2412 18.1042 
2.5931 2.24417 18.1226 
2.67868 2.24156 18.049 
2.65737 2.24452 18.0673 
2.63601 2.24749 18.0857 
2.61458 2.25046 18.1042 
2.5931 2.25344 18.1226 
2.57157 2.25643 18.1412 
2.65737 2.25376 18.0673 
2.63601 2.25674 18.0857 
2.61458 2.25972 18.1042 
2.5931 2.26272 18.1226 
2.57157 2.26572 18.1412 
2.65737 2.263 18.0673 
2.63601 2.26599 18.0857 
2.61458 2.26898 18.1042 
2.5931 2.27199 18.1226 
2.57157 2.275 18.1412 
2.54997 2.27803 18.1598 
2.63601 2.27523 18.0857 
2.61458 2.27825 18.1042 
2.5931 2.28126 18.1226 
2.57157 2.28429 18.1412 
2.54997 2.28732 18.1598 
2.63601 2.28448 18.0857 
2.61458 2.28751 18.1042 
2.5931 2.29054 18.1226 
2.57157 2.29358 18.1412 
2.54997 2.29662 18.1598 
2.52832 2.29968 18.1784 
2.63601 2.29373 18.0857 
2.61458 2.29677 18.1042 
2.5931 2.29981 18.1226 
2.57157 2.30286 18.1412 
2.54997 2.30592 18.1598 
2.52832 2.30899 18.1784 
2.63601 2.30298 18.0857 
2.61458 2.30603 18.1042 
2.5931 2.30908 18.1226 
2.57157 2.31215 18.1412 
2.54997 2.31522 18.1598 
2.52832 2.3183 18.1784 
2.5931 2.31836 18.1226 
2.57157 2.32143 18.1412 
2.54997 2.32452 18.1598 
2.52832 2.32761 18.1784 
2.5931 2.32763 18.1226 
2.57157 2.33072 18.1412 
2.54997 2.33381 18.1598 
2.52832 2.33692 18.1784 
2.5931 2.3369 18.1226 
2.57157 2.34 18.1412 
2.54997 2.34311 18.1598 
2.52832 2.34623 18.1784 
2.50662 2.34935 18.1971 
2.5931 2.34618 18.1226 
2.57157 2.34929 18.1412 
2.54997 2.35241 18.1598 
2.52832 2.35554 18.1784 
2.50662 2.35868 18.1971 
2.5931 2.35545 18.1226 
2.57157 2.35858 18.1412 
2.54997 2.36171 18.1598 
2.52832 2.36485 18.1784 
2.50662 2.368 18.1971 
2.48485 2.37116 18.2158 
2.5931 2.36472 18.1226 
2.57157 2.36786 18.1412 
2.54997 2.37101 18.1598 
2.52832 2.37416 18.1784 
2.50662 2.37732 18.1971 
2.48485 2.38049 18.2158 
2.54997 2.3803 18.1598 
2.52832 2.38347 18.1784 
2.50662 2.38664 18.1971 
2.48485 2.38983 18.2158 
2.54997 2.3896 18.1598 
2.52832 2.39278 18.1784 
2.50662 2.39597 18.1971 
2.48485 2.39916 18.2158 
2.52832 2.40209 18.1784 
2.50662 2.40529 18.1971 
2.48485 2.4085 18.2158 
2.50662 2.41461 18.1971 
2.48485 2.41783 18.2158 
2.50662 2.42394 18.1971 
2.48485 2.42717 18.2158 
2.46303 2.43041 18.2346 
2.48485 2.4365 18.2158 
2.46303 2.43976 18.2346 
2.44114 2.44302 18.2534 
2.48485 2.44584 18.2158 
2.46303 2.44911 18.2346 
2.44114 2.45238 18.2534 
2.48485 2.45517 18.2158 
2.46303 2.45845 18.2346 
2.44114 2.46174 18.2534 
2.46303 2.4678 18.2346 
2.44114 2.4711 18.2534 
2.46303 2.47715 18.2346 
2.44114 2.48046 18.2534 
2.46303 2.4865 18.2346 
2.44114 2.48982 18.2534 
2.46303 2.49584 18.2346 
2.44114 2.49918 18.2534 
2.46303 2.50519 18.2346 
2.44114 2.50854 18.2534 
2.46303 2.51454 18.2346 
2.44114 2.5179 18.2534 
2.46303 2.52389 18.2346 
2.44114 2.52726 18.2534 
2.46303 2.53323 18.2346 
2.44114 2.53662 18.2534 
2.50662 2.53581 18.1971 
2.48485 2.53919 18.2158 
2.46303 2.54258 18.2346 
2.44114 2.54598 18.2534 
2.4192 2.54939 18.2723 
2.3972 2.55281 18.2912 
2.50662 2.54513 18.1971 
2.48485 2.54853 18.2158 
2.46303 2.55193 18.2346 
2.44114 2.55534 18.2534 
2.4192 2.55876 18.2723 
2.3972 2.5622 18.2912 
2.50662 2.55446 18.1971 
2.48485 2.55786 18.2158 
2.46303 2.56128 18.2346 
2.44114 2.5647 18.2534 
2.4192 2.56814 18.2723 
2.3972 2.57158 18.2912 
2.50662 2.56378 18.1971 
2.48485 2.5672 18.2158 
2.46303 2.57063 18.2346 
2.44114 2.57406 18.2534 
2.4192 2.57751 18.2723 
2.3972 2.58097 18.2912 
2.48485 2.57653 18.2158 
2.46303 2.57997 18.2346 
2.44114 2.58342 18.2534 
2.4192 2.58688 18.2723 
2.3972 2.59035 18.2912 
2.48485 2.58587 18.2158 
2.46303 2.58932 18.2346 
2.44114 2.59278 18.2534 
2.4192 2.59626 18.2723 
2.3972 2.59974 18.2912 
2.46303 2.59867 18.2346 
2.44114 2.60214 18.2534 
2.3972 2.60912 18.2912 
2.46303 2.60802 18.2346 
2.44114 2.6115 18.2534 
2.3972 2.61851 18.2912 
2.44114 2.62086 18.2534 
2.44114 2.63022 18.2534 
2.44114 2.63958 18.2534 
2.44114 2.64895 18.2534 
2.44114 2.65831 18.2534 
2.44114 2.66767 18.2534 
2.44114 2.67703 18.2534 
2.44114 2.68639 18.2534 
2.44114 2.72383 18.2534 
2.44114 2.73319 18.2534 
2.44114 2.77063 18.2534 
2.44114 2.77999 18.2534 
2.44114 2.78935 18.2534 
2.44114 2.79871 18.2534 
2.4192 2.80246 18.2723 
2.44114 2.80807 18.2534 
2.4192 2.81183 18.2723 
2.44114 2.81743 18.2534 
2.4192 2.8212 18.2723 
2.3972 2.82498 18.2912 
2.4192 2.83057 18.2723 
2.3972 2.83437 18.2912 
2.37514 2.83817 18.3102 
2.4192 2.83995 18.2723 
2.3972 2.84375 18.2912 
2.37514 2.84757 18.3102 
2.35302 2.8514 18.3292 
2.37514 2.85697 18.3102 
2.35302 2.86081 18.3292 
2.33084 2.86466 18.3483 
2.37514 2.86637 18.3102 
2.35302 2.87022 18.3292 
2.33084 2.87409 18.3483 
2.35302 2.87963 18.3292 
2.33084 2.88351 18.3483 
2.30861 2.8874 18.3675 
2.35302 2.88904 18.3292 
2.33084 2.89293 18.3483 
2.30861 2.89683 18.3675 
2.28631 2.90074 18.3867 
2.26395 2.90466 18.4059 
2.35302 2.89845 18.3292 
2.33084 2.90236 18.3483 
2.30861 2.90627 18.3675 
2.28631 2.91019 18.3867 
2.26395 2.91412 18.4059 
2.24153 2.91807 18.4252 
2.21905 2.92202 18.4445 
2.33084 2.91178 18.3483 
2.30861 2.9157 18.3675 
2.28631 2.91964 18.3867 
2.26395 2.92359 18.4059 
2.24153 2.92754 18.4252 
2.21905 2.93151 18.4445 
2.33084 2.9212 18.3483 
2.30861 2.92514 18.3675 
2.28631 2.92909 18.3867 
2.26395 2.93305 18.4059 
2.24153 2.93702 18.4252 
2.21905 2.941 18.4445 
2.19651 2.94499 18.4639 
2.17391 2.94899 18.4834 
2.15125 2.953 18.5029 
2.33084 2.93063 18.3483 
2.30861 2.93458 18.3675 
2.28631 2.93854 18.3867 
2.26395 2.94251 18.4059 
2.24153 2.94649 18.4252 
2.21905 2.95048 18.4445 
2.19651 2.95449 18.4639 
2.17391 2.9585 18.4834 
2.15125 2.96253 18.5029 
2.12852 2.96657 18.5224 
2.33084 2.94005 18.3483 
2.30861 2.94401 18.3675 
2.28631 2.94799 18.3867 
2.26395 2.95197 18.4059 
2.24153 2.95597 18.4252 
2.21905 2.95997 18.4445 
2.19651 2.96399 18.4639 
2.17391 2.96802 18.4834 
2.15125 2.97206 18.5029 
2.12852 2.97611 18.5224 
2.10573 2.98017 18.5421 
2.08289 2.98424 18.5617 
2.33084 2.94947 18.3483 
2.30861 2.95345 18.3675 
2.28631 2.95743 18.3867 
2.26395 2.96143 18.4059 
2.24153 2.96544 18.4252 
2.21905 2.96946 18.4445 
2.19651 2.97349 18.4639 
2.17391 2.97753 18.4834 
2.15125 2.98158 18.5029 
2.12852 2.98564 18.5224 
2.10573 2.98972 18.5421 
2.08289 2.9938 18.5617 
2.30861 2.96288 18.3675 
2.28631 2.96688 18.3867 
2.26395 2.97089 18.4059 
2.24153 2.97491 18.4252 
2.21905 2.97895 18.4445 
2.19651 2.98299 18.4639 
2.17391 2.98704 18.4834 
2.15125 2.99111 18.5029 
2.12852 2.99518 18.5224 
2.10573 2.99927 18.5421 
2.08289 3.00337 18.5617 
2.30861 2.97232 18.3675 
2.28631 2.97633 18.3867 
2.26395 2.98035 18.4059 
2.24153 2.98439 18.4252 
2.21905 2.98843 18.4445 
2.19651 2.99249 18.4639 
2.17391 2.99656 18.4834 
2.15125 3.00063 18.5029 
2.12852 3.00472 18.5224 
2.10573 3.00882 18.5421 
2.08289 3.01293 18.5617 
2.28631 2.98578 18.3867 
2.26395 2.98982 18.4059 
2.24153 2.99386 18.4252 
2.21905 2.99792 18.4445 
2.19651 3.00199 18.4639 
2.17391 3.00607 18.4834 
2.15125 3.01016 18.5029 
2.12852 3.01426 18.5224 
2.10573 3.01837 18.5421 
2.08289 3.0225 18.5617 
2.28631 2.99523 18.3867 
2.26395 2.99928 18.4059 
2.24153 3.00334 18.4252 
2.21905 3.00741 18.4445 
2.19651 3.01149 18.4639 
2.17391 3.01558 18.4834 
2.15125 3.01969 18.5029 
2.12852 3.0238 18.5224 
2.10573 3.02793 18.5421 
2.08289 3.03206 18.5617 
2.28631 3.00468 18.3867 
2.26395 3.00874 18.4059 
2.24153 3.01281 18.4252 
2.21905 3.01689 18.4445 
2.19651 3.02099 18.4639 
2.17391 3.02509 18.4834 
2.15125 3.02921 18.5029 
2.12852 3.03334 18.5224 
2.10573 3.03748 18.5421 
2.08289 3.04163 18.5617 
2.28631 3.01413 18.3867 
2.26395 3.0182 18.4059 
2.24153 3.02229 18.4252 
2.21905 3.02638 18.4445 
2.19651 3.03049 18.4639 
2.17391 3.03461 18.4834 
2.15125 3.03874 18.5029 
2.12852 3.04288 18.5224 
2.10573 3.04703 18.5421 
2.08289 3.05119 18.5617 
2.30861 3.0195 18.3675 
2.28631 3.02357 18.3867 
2.26395 3.02766 18.4059 
2.24153 3.03176 18.4252 
2.21905 3.03587 18.4445 
2.19651 3.03999 18.4639 
2.17391 3.04412 18.4834 
2.15125 3.04826 18.5029 
2.12852 3.05242 18.5224 
2.10573 3.05658 18.5421 
2.33084 3.02486 18.3483 
2.30861 3.02894 18.3675 
2.28631 3.03302 18.3867 
2.26395 3.03712 18.4059 
2.24153 3.04123 18.4252 
2.21905 3.04536 18.4445 
2.19651 3.04949 18.4639 
2.17391 3.05363 18.4834 
2.15125 3.05779 18.5029 
2.12852 3.06195 18.5224 
2.10573 3.06613 18.5421 
2.33084 3.03428 18.3483 
2.30861 3.03837 18.3675 
2.28631 3.04247 18.3867 
2.26395 3.04658 18.4059 
2.24153 3.05071 18.4252 
2.21905 3.05484 18.4445 
2.19651 3.05899 18.4639 
2.17391 3.06315 18.4834 
2.15125 3.06731 18.5029 
2.12852 3.07149 18.5224 
2.33084 3.0437 18.3483 
2.30861 3.04781 18.3675 
2.28631 3.05192 18.3867 
2.26395 3.05605 18.4059 
2.24153 3.06018 18.4252 
2.21905 3.06433 18.4445 
2.19651 3.06849 18.4639 
2.17391 3.07266 18.4834 
2.15125 3.07684 18.5029 
2.12852 3.08103 18.5224 
2.33084 3.05313 18.3483 
2.30861 3.05724 18.3675 
2.28631 3.06137 18.3867 
2.26395 3.06551 18.4059 
2.24153 3.06966 18.4252 
2.21905 3.07382 18.4445 
2.19651 3.07799 18.4639 
2.17391 3.08217 18.4834 
2.15125 3.08637 18.5029 
2.12852 3.09057 18.5224 
2.33084 3.06255 18.3483 
2.30861 3.06668 18.3675 
2.28631 3.07082 18.3867 
2.26395 3.07497 18.4059 
2.24153 3.07913 18.4252 
2.21905 3.0833 18.4445 
2.19651 3.08749 18.4639 
2.17391 3.09168 18.4834 
2.15125 3.09589 18.5029 
2.12852 3.10011 18.5224 
2.30861 3.07611 18.3675 
2.28631 3.08027 18.3867 
2.26395 3.08443 18.4059 
2.24153 3.0886 18.4252 
2.21905 3.09279 18.4445 
2.19651 3.09699 18.4639 
2.17391 3.1012 18.4834 
2.15125 3.10542 18.5029 
2.12852 3.10965 18.5224 
2.30861 3.08555 18.3675 
2.28631 3.08972 18.3867 
2.26395 3.09389 18.4059 
2.24153 3.09808 18.4252 
2.21905 3.10228 18.4445 
2.19651 3.10649 18.4639 
2.17391 3.11071 18.4834 
2.15125 3.11494 18.5029 
2.33084 3.09082 18.3483 
2.30861 3.09499 18.3675 
2.28631 3.09916 18.3867 
2.26395 3.10335 18.4059 
2.24153 3.10755 18.4252 
2.21905 3.11177 18.4445 
2.19651 3.11599 18.4639 
2.17391 3.12022 18.4834 
2.15125 3.12447 18.5029 
2.33084 3.10024 18.3483 
2.30861 3.10442 18.3675 
2.28631 3.10861 18.3867 
2.26395 3.11281 18.4059 
2.24153 3.11703 18.4252 
2.21905 3.12125 18.4445 
2.19651 3.12549 18.4639 
2.17391 3.12974 18.4834 
2.15125 3.13399 18.5029 
2.33084 3.10967 18.3483 
2.30861 3.11386 18.3675 
2.28631 3.11806 18.3867 
2.26395 3.12228 18.4059 
2.24153 3.1265 18.4252 
2.21905 3.13074 18.4445 
2.19651 3.13499 18.4639 
2.17391 3.13925 18.4834 
2.33084 3.11909 18.3483 
2.30861 3.12329 18.3675 
2.28631 3.12751 18.3867 
2.26395 3.13174 18.4059 
2.24153 3.13598 18.4252 
2.21905 3.14023 18.4445 
2.19651 3.14449 18.4639 
2.17391 3.14876 18.4834 
2.33084 3.12851 18.3483 
2.30861 3.13273 18.3675 
2.28631 3.13696 18.3867 
2.26395 3.1412 18.4059 
2.24153 3.14545 18.4252 
2.21905 3.14971 18.4445 
2.19651 3.15399 18.4639 
2.17391 3.15827 18.4834 
2.33084 3.13794 18.3483 
2.30861 3.14217 18.3675 
2.28631 3.14641 18.3867 
2.26395 3.15066 18.4059 
2.24153 3.15492 18.4252 
2.21905 3.1592 18.4445 
2.19651 3.16349 18.4639 
2.17391 3.16779 18.4834 
2.33084 3.14736 18.3483 
2.30861 3.1516 18.3675 
2.28631 3.15586 18.3867 
2.26395 3.16012 18.4059 
2.24153 3.1644 18.4252 
2.21905 3.16869 18.4445 
2.19651 3.17299 18.4639 
2.33084 3.15678 18.3483 
2.30861 3.16104 18.3675 
2.28631 3.1653 18.3867 
2.26395 3.16958 18.4059 
2.24153 3.17387 18.4252 
2.21905 3.17817 18.4445 
2.19651 3.18249 18.4639 
2.28631 3.17475 18.3867 
2.26395 3.17904 18.4059 
2.24153 3.18335 18.4252 
2.21905 3.18766 18.4445 
2.19651 3.19199 18.4639 
2.28631 3.1842 18.3867 
2.26395 3.18851 18.4059 
2.21905 3.19715 18.4445 
2.37514 3.1765 18.3102 
2.35302 3.18077 18.3292 
2.33084 3.18505 18.3483 
2.30861 3.18935 18.3675 
2.28631 3.19365 18.3867 
2.26395 3.19797 18.4059 
2.21905 3.20664 18.4445 
2.37514 3.1859 18.3102 
2.35302 3.19018 18.3292 
2.33084 3.19448 18.3483 
2.30861 3.19878 18.3675 
2.28631 3.2031 18.3867 
2.26395 3.20743 18.4059 
2.4192 3.18674 18.2723 
2.3972 3.19101 18.2912 
2.37514 3.1953 18.3102 
2.35302 3.19959 18.3292 
2.33084 3.2039 18.3483 
2.30861 3.20822 18.3675 
2.28631 3.21255 18.3867 
2.26395 3.21689 18.4059 
2.4192 3.19611 18.2723 
2.3972 3.2004 18.2912 
2.37514 3.20469 18.3102 
2.35302 3.209 18.3292 
2.33084 3.21332 18.3483 
2.30861 3.21765 18.3675 
2.26395 3.22635 18.4059 
2.4192 3.20548 18.2723 
2.3972 3.20978 18.2912 
2.37514 3.21409 18.3102 
2.35302 3.21841 18.3292 
2.33084 3.22275 18.3483 
2.30861 3.22709 18.3675 
2.4192 3.21486 18.2723 
2.3972 3.21917 18.2912 
2.37514 3.22349 18.3102 
2.35302 3.22782 18.3292 
2.33084 3.23217 18.3483 
2.30861 3.23653 18.3675 
2.4192 3.22423 18.2723 
2.3972 3.22855 18.2912 
2.37514 3.23289 18.3102 
2.35302 3.23723 18.3292 
2.33084 3.24159 18.3483 
2.30861 3.24596 18.3675 
1.6858 1.09 19.0112 
1.66244 1.09153 19.0328 
1.63902 1.09307 19.0546 
1.61553 1.09461 19.0764 
1.54467 1.09925 19.1421 
4.36604 1.75444 16.5243 
4.36604 1.76267 16.5243 
4.34961 1.76475 16.5395 
4.33314 1.76683 16.5548 
4.31663 1.76892 16.5701 
4.30009 1.77101 16.5855 
4.30009 1.77929 16.5855 
4.2835 1.78139 16.6009 
4.26688 1.7835 16.6163 
4.25021 1.78562 16.6318 
4.2835 1.78968 16.6009 
4.26688 1.7918 16.6163 
4.25021 1.79392 16.6318 
4.23351 1.79606 16.6473 
4.21677 1.79819 16.6628 
4.25021 1.80223 16.6318 
4.23351 1.80437 16.6473 
4.21677 1.80652 16.6628 
4.19998 1.80867 16.6784 
4.19998 1.817 16.6784 
4.18316 1.81917 16.694 
4.1663 1.82134 16.7096 
4.14939 1.82352 16.7253 
4.13245 1.8257 16.741 
4.14939 1.83188 16.7253 
4.13245 1.83407 16.741 
4.11547 1.83627 16.7568 
4.09844 1.83847 16.7726 
4.08137 1.84068 16.7884 
4.09844 1.84687 16.7726 
