VERSION .7
FIELDS x y z
SIZE 4 4 4
TYPE F F F
COUNT 1 1 1
WIDTH 1939
HEIGHT 1
VIEWPOINT 0 0 0 1 0 0 0
POINTS 1939
DATA ascii
3.67229 2.4831 16.6526 
3.76999 2.49597 16.6867 
3.78965 2.49856 16.6935 
3.80936 2.50116 16.7004 
3.8291 2.50376 16.7072 
3.84889 2.50637 16.7141 
3.86871 2.50898 16.721 
3.88858 2.51159 16.728 
3.90849 2.51422 16.7349 
3.92844 2.51684 16.7418 
3.76999 2.50323 16.6867 
3.78965 2.50583 16.6935 
3.80936 2.50843 16.7004 
3.8291 2.51104 16.7072 
3.84889 2.51365 16.7141 
3.86871 2.51627 16.721 
3.88858 2.51889 16.728 
3.90849 2.52152 16.7349 
3.92844 2.52416 16.7418 
3.80936 2.5157 16.7004 
3.8291 2.51832 16.7072 
3.84889 2.52094 16.7141 
3.86871 2.52356 16.721 
3.88858 2.5262 16.728 
3.90849 2.52883 16.7349 
3.92844 2.53148 16.7418 
3.94843 2.53413 16.7488 
3.80936 2.52297 16.7004 
3.8291 2.52559 16.7072 
3.84889 2.52822 16.7141 
3.86871 2.53086 16.721 
3.88858 2.5335 16.728 
3.90849 2.53614 16.7349 
3.92844 2.53879 16.7418 
3.94843 2.54145 16.7488 
3.80936 2.53024 16.7004 
3.8291 2.53287 16.7072 
3.84889 2.53551 16.7141 
3.86871 2.53815 16.721 
3.88858 2.5408 16.728 
3.90849 2.54345 16.7349 
3.92844 2.54611 16.7418 
3.94843 2.54877 16.7488 
3.80936 2.53751 16.7004 
3.8291 2.54015 16.7072 
3.84889 2.54279 16.7141 
3.86871 2.54544 16.721 
3.88858 2.5481 16.728 
3.90849 2.55076 16.7349 
3.92844 2.55343 16.7418 
3.94843 2.5561 16.7488 
3.80936 2.54478 16.7004 
3.8291 2.54743 16.7072 
3.84889 2.55008 16.7141 
3.86871 2.55274 16.721 
3.88858 2.5554 16.728 
3.90849 2.55807 16.7349 
3.92844 2.56074 16.7418 
3.94843 2.56342 16.7488 
3.80936 2.55205 16.7004 
3.8291 2.55471 16.7072 
3.84889 2.55737 16.7141 
3.86871 2.56003 16.721 
3.88858 2.5627 16.728 
3.90849 2.56538 16.7349 
3.92844 2.56806 16.7418 
3.94843 2.57075 16.7488 
3.80936 2.55932 16.7004 
3.8291 2.56199 16.7072 
3.84889 2.56465 16.7141 
3.86871 2.56732 16.721 
3.88858 2.57 16.728 
3.90849 2.57269 16.7349 
3.92844 2.57537 16.7418 
3.80936 2.5666 16.7004 
3.8291 2.56926 16.7072 
3.84889 2.57194 16.7141 
3.86871 2.57462 16.721 
3.88858 2.5773 16.728 
3.90849 2.57999 16.7349 
3.92844 2.58269 16.7418 
3.80936 2.57387 16.7004 
3.8291 2.57654 16.7072 
3.84889 2.57922 16.7141 
3.86871 2.58191 16.721 
3.88858 2.5846 16.728 
3.90849 2.5873 16.7349 
3.80936 2.58114 16.7004 
3.8291 2.58382 16.7072 
3.84889 2.58651 16.7141 
3.86871 2.58921 16.721 
3.88858 2.59191 16.728 
3.90849 2.59461 16.7349 
3.80936 2.58841 16.7004 
3.8291 2.5911 16.7072 
3.84889 2.5938 16.7141 
3.86871 2.5965 16.721 
3.88858 2.59921 16.728 
3.90849 2.60192 16.7349 
3.80936 2.59568 16.7004 
3.8291 2.59838 16.7072 
3.84889 2.60108 16.7141 
3.86871 2.60379 16.721 
3.88858 2.60651 16.728 
3.80936 2.60295 16.7004 
3.8291 2.60566 16.7072 
3.84889 2.60837 16.7141 
3.86871 2.61109 16.721 
3.78965 2.60751 16.6935 
3.80936 2.61022 16.7004 
3.8291 2.61293 16.7072 
3.84889 2.61565 16.7141 
3.86871 2.61838 16.721 
3.76999 2.61207 16.6867 
3.78965 2.61478 16.6935 
3.80936 2.61749 16.7004 
3.8291 2.62021 16.7072 
3.84889 2.62294 16.7141 
3.75037 2.61661 16.6798 
3.76999 2.61932 16.6867 
3.78965 2.62204 16.6935 
3.80936 2.62476 16.7004 
3.8291 2.62749 16.7072 
3.71125 2.61843 16.6662 
3.73079 2.62114 16.673 
3.75037 2.62386 16.6798 
3.76999 2.62658 16.6867 
3.78965 2.6293 16.6935 
3.80936 2.63203 16.7004 
3.8291 2.63477 16.7072 
3.69175 2.62296 16.6594 
3.71125 2.62567 16.6662 
3.73079 2.62838 16.673 
3.75037 2.63111 16.6798 
3.76999 2.63383 16.6867 
3.78965 2.63657 16.6935 
3.80936 2.6393 16.7004 
3.67229 2.62747 16.6526 
3.69175 2.63018 16.6594 
3.71125 2.6329 16.6662 
3.73079 2.63562 16.673 
3.75037 2.63835 16.6798 
3.67229 2.63469 16.6526 
3.69175 2.63741 16.6594 
3.71125 2.64013 16.6662 
3.73079 2.64286 16.673 
3.75037 2.6456 16.6798 
3.65287 2.63919 16.6459 
3.67229 2.64191 16.6526 
3.69175 2.64463 16.6594 
3.71125 2.64737 16.6662 
3.73079 2.65011 16.673 
3.75037 2.65285 16.6798 
3.65287 2.6464 16.6459 
3.67229 2.64913 16.6526 
3.69175 2.65186 16.6594 
3.71125 2.6546 16.6662 
3.73079 2.65735 16.673 
3.75037 2.6601 16.6798 
3.67229 2.65634 16.6526 
3.69175 2.65909 16.6594 
3.71125 2.66183 16.6662 
3.73079 2.66459 16.673 
3.75037 2.66735 16.6798 
3.76999 2.67011 16.6867 
3.78965 2.67288 16.6935 
3.80936 2.67566 16.7004 
3.69175 2.66631 16.6594 
3.71125 2.66907 16.6662 
3.73079 2.67183 16.673 
3.75037 2.67459 16.6798 
3.76999 2.67737 16.6867 
3.78965 2.68014 16.6935 
3.80936 2.68293 16.7004 
3.8291 2.68572 16.7072 
3.69175 2.67354 16.6594 
3.71125 2.6763 16.6662 
3.73079 2.67907 16.673 
3.75037 2.68184 16.6798 
3.76999 2.68462 16.6867 
3.78965 2.68741 16.6935 
3.80936 2.6902 16.7004 
3.8291 2.693 16.7072 
3.69175 2.68076 16.6594 
3.71125 2.68353 16.6662 
3.73079 2.68631 16.673 
3.75037 2.68909 16.6798 
3.76999 2.69188 16.6867 
3.78965 2.69467 16.6935 
3.80936 2.69747 16.7004 
3.8291 2.70027 16.7072 
3.84889 2.70309 16.7141 
3.71125 2.69077 16.6662 
3.73079 2.69355 16.673 
3.75037 2.69634 16.6798 
3.76999 2.69913 16.6867 
3.78965 2.70193 16.6935 
3.80936 2.70474 16.7004 
3.8291 2.70755 16.7072 
3.84889 2.71037 16.7141 
3.86871 2.7132 16.721 
3.73079 2.70079 16.673 
3.75037 2.70359 16.6798 
3.76999 2.70639 16.6867 
3.78965 2.7092 16.6935 
3.80936 2.71201 16.7004 
3.8291 2.71483 16.7072 
3.84889 2.71766 16.7141 
3.86871 2.72049 16.721 
3.73079 2.70803 16.673 
3.75037 2.71084 16.6798 
3.76999 2.71365 16.6867 
3.78965 2.71646 16.6935 
3.80936 2.71928 16.7004 
3.8291 2.72211 16.7072 
3.84889 2.72494 16.7141 
3.86871 2.72778 16.721 
3.73079 2.71527 16.673 
3.75037 2.71808 16.6798 
3.76999 2.7209 16.6867 
3.78965 2.72372 16.6935 
3.80936 2.72655 16.7004 
3.8291 2.72939 16.7072 
3.84889 2.73223 16.7141 
3.86871 2.73508 16.721 
3.73079 2.72251 16.673 
3.75037 2.72533 16.6798 
3.76999 2.72816 16.6867 
3.78965 2.73099 16.6935 
3.80936 2.73382 16.7004 
3.8291 2.73667 16.7072 
3.84889 2.73952 16.7141 
3.86871 2.74237 16.721 
3.73079 2.72975 16.673 
3.75037 2.73258 16.6798 
3.76999 2.73541 16.6867 
3.78965 2.73825 16.6935 
3.80936 2.7411 16.7004 
3.8291 2.74395 16.7072 
3.84889 2.7468 16.7141 
3.86871 2.74966 16.721 
3.73079 2.73699 16.673 
3.75037 2.73983 16.6798 
3.76999 2.74267 16.6867 
3.78965 2.74551 16.6935 
3.80936 2.74837 16.7004 
3.8291 2.75122 16.7072 
3.84889 2.75409 16.7141 
3.73079 2.74424 16.673 
3.75037 2.74708 16.6798 
3.76999 2.74992 16.6867 
3.78965 2.75278 16.6935 
3.80936 2.75564 16.7004 
3.8291 2.7585 16.7072 
3.73079 2.75148 16.673 
3.75037 2.75432 16.6798 
3.76999 2.75718 16.6867 
3.78965 2.76004 16.6935 
3.80936 2.76291 16.7004 
3.8291 2.76578 16.7072 
3.73079 2.75872 16.673 
3.75037 2.76157 16.6798 
3.76999 2.76444 16.6867 
3.78965 2.7673 16.6935 
3.80936 2.77018 16.7004 
3.8291 2.77306 16.7072 
3.73079 2.76596 16.673 
3.75037 2.76882 16.6798 
3.76999 2.77169 16.6867 
3.78965 2.77457 16.6935 
3.80936 2.77745 16.7004 
3.73079 2.7732 16.673 
3.75037 2.77607 16.6798 
3.76999 2.77895 16.6867 
3.78965 2.78183 16.6935 
3.80936 2.78472 16.7004 
3.73079 2.78044 16.673 
3.75037 2.78332 16.6798 
3.76999 2.7862 16.6867 
3.78965 2.78909 16.6935 
3.80936 2.79199 16.7004 
3.71125 2.7848 16.6662 
3.73079 2.78768 16.673 
3.75037 2.79057 16.6798 
3.76999 2.79346 16.6867 
3.78965 2.79636 16.6935 
3.71125 2.79203 16.6662 
2.92166 2.04995 16.3678 
2.93981 2.05199 16.3733 
2.95801 2.05402 16.3788 
2.97624 2.05606 16.3843 
3.06793 2.06631 16.412 
2.92166 2.05688 16.3678 
2.93981 2.05892 16.3733 
2.95801 2.06096 16.3788 
2.99451 2.06505 16.3898 
3.01281 2.06711 16.3953 
3.04952 2.07122 16.4064 
3.06793 2.07329 16.412 
3.08638 2.07536 16.4175 
3.10487 2.07743 16.4231 
3.12339 2.07951 16.4287 
3.06793 2.08027 16.412 
3.08638 2.08235 16.4175 
3.10487 2.08443 16.4231 
3.12339 2.08651 16.4287 
3.14195 2.0886 16.4343 
3.16055 2.0907 16.4399 
3.17918 2.09279 16.4456 
3.19786 2.0949 16.4512 
3.10487 2.09142 16.4231 
3.12339 2.09352 16.4287 
3.14195 2.09561 16.4343 
3.16055 2.09771 16.4399 
3.17918 2.09982 16.4456 
3.19786 2.10192 16.4512 
3.21657 2.10404 16.4569 
3.23531 2.10616 16.4625 
3.14195 2.10262 16.4343 
3.16055 2.10473 16.4399 
3.17918 2.10684 16.4456 
3.19786 2.10895 16.4512 
3.21657 2.11107 16.4569 
3.23531 2.1132 16.4625 
3.2541 2.11533 16.4682 
3.27292 2.11746 16.4739 
3.14195 2.10963 16.4343 
3.16055 2.11174 16.4399 
3.17918 2.11386 16.4456 
3.19786 2.11598 16.4512 
3.21657 2.11811 16.4569 
3.23531 2.12024 16.4625 
3.2541 2.12238 16.4682 
3.27292 2.12452 16.4739 
3.14195 2.11664 16.4343 
3.16055 2.11876 16.4399 
3.17918 2.12088 16.4456 
3.19786 2.12301 16.4512 
3.21657 2.12515 16.4569 
3.23531 2.12729 16.4625 
3.2541 2.12943 16.4682 
3.27292 2.13158 16.4739 
3.29178 2.13373 16.4796 
3.31068 2.13588 16.4853 
3.44405 2.1511 16.5255 
4.07875 2.2235 16.7172 
3.14195 2.12365 16.4343 
3.16055 2.12577 16.4399 
3.17918 2.12791 16.4456 
3.19786 2.13004 16.4512 
3.21657 2.13219 16.4569 
3.23531 2.13433 16.4625 
3.2541 2.13648 16.4682 
3.27292 2.13864 16.4739 
3.29178 2.14079 16.4796 
3.31068 2.14296 16.4853 
3.38666 2.15165 16.5082 
3.40575 2.15384 16.514 
3.42488 2.15603 16.5197 
3.44405 2.15822 16.5255 
3.46326 2.16042 16.5313 
3.4825 2.16262 16.5371 
3.50179 2.16483 16.543 
3.52112 2.16704 16.5488 
4.07875 2.23086 16.7172 
4.09927 2.23321 16.7234 
3.21657 2.13922 16.4569 
3.23531 2.14138 16.4625 
3.2541 2.14353 16.4682 
3.27292 2.14569 16.4739 
3.29178 2.14786 16.4796 
3.31068 2.15003 16.4853 
3.36761 2.15657 16.5025 
3.38666 2.15875 16.5082 
3.40575 2.16095 16.514 
3.42488 2.16314 16.5197 
3.44405 2.16534 16.5255 
3.46326 2.16755 16.5313 
3.4825 2.16976 16.5371 
3.50179 2.17197 16.543 
3.52112 2.17419 16.5488 
3.54048 2.17642 16.5547 
3.55989 2.17864 16.5605 
3.23531 2.14842 16.4625 
3.2541 2.15058 16.4682 
3.27292 2.15275 16.4739 
3.29178 2.15492 16.4796 
3.31068 2.1571 16.4853 
3.44405 2.17247 16.5255 
3.46326 2.17468 16.5313 
3.4825 2.1769 16.5371 
3.50179 2.17912 16.543 
3.52112 2.18134 16.5488 
3.54048 2.18358 16.5547 
3.55989 2.18581 16.5605 
3.57933 2.18805 16.5664 
3.2541 2.15763 16.4682 
3.27292 2.15981 16.4739 
3.29178 2.16199 16.4796 
3.46326 2.18181 16.5313 
3.4825 2.18403 16.5371 
3.50179 2.18626 16.543 
3.52112 2.1885 16.5488 
3.54048 2.19074 16.5547 
3.55989 2.19298 16.5605 
3.57933 2.19523 16.5664 
3.59882 2.19748 16.5723 
3.4825 2.19117 16.5371 
3.50179 2.19341 16.543 
3.52112 2.19565 16.5488 
3.54048 2.19789 16.5547 
3.55989 2.20014 16.5605 
3.57933 2.2024 16.5664 
3.59882 2.20466 16.5723 
3.4825 2.19831 16.5371 
3.50179 2.20055 16.543 
3.52112 2.2028 16.5488 
3.54048 2.20505 16.5547 
3.55989 2.20731 16.5605 
3.57933 2.20957 16.5664 
3.59882 2.21184 16.5723 
3.61834 2.21411 16.5782 
3.4825 2.20545 16.5371 
3.50179 2.2077 16.543 
3.52112 2.20995 16.5488 
3.54048 2.21221 16.5547 
3.55989 2.21448 16.5605 
3.57933 2.21675 16.5664 
3.59882 2.21902 16.5723 
3.61834 2.2213 16.5782 
3.52112 2.2171 16.5488 
3.54048 2.21937 16.5547 
3.55989 2.22164 16.5605 
3.57933 2.22392 16.5664 
3.59882 2.2262 16.5723 
3.61834 2.22849 16.5782 
3.52112 2.22426 16.5488 
3.54048 2.22653 16.5547 
3.55989 2.22881 16.5605 
3.57933 2.2311 16.5664 
3.59882 2.23338 16.5723 
3.61834 2.23568 16.5782 
3.52112 2.23141 16.5488 
3.54048 2.23369 16.5547 
3.55989 2.23598 16.5605 
3.57933 2.23827 16.5664 
3.59882 2.24057 16.5723 
3.61834 2.24287 16.5782 
3.52112 2.23856 16.5488 
3.54048 2.24085 16.5547 
3.55989 2.24314 16.5605 
3.57933 2.24544 16.5664 
3.59882 2.24775 16.5723 
3.61834 2.25006 16.5782 
3.52112 2.24571 16.5488 
3.54048 2.24801 16.5547 
3.55989 2.25031 16.5605 
3.57933 2.25262 16.5664 
3.59882 2.25493 16.5723 
3.61834 2.25724 16.5782 
3.63791 2.25956 16.5841 
3.54048 2.25517 16.5547 
3.55989 2.25748 16.5605 
3.57933 2.25979 16.5664 
3.59882 2.26211 16.5723 
3.61834 2.26443 16.5782 
3.63791 2.26676 16.5841 
3.55989 2.26464 16.5605 
3.57933 2.26697 16.5664 
3.59882 2.26929 16.5723 
3.61834 2.27162 16.5782 
3.63791 2.27396 16.5841 
3.55989 2.27181 16.5605 
3.57933 2.27414 16.5664 
3.59882 2.27647 16.5723 
3.61834 2.27881 16.5782 
3.63791 2.28115 16.5841 
3.65751 2.2835 16.59 
3.55989 2.27898 16.5605 
3.57933 2.28131 16.5664 
3.59882 2.28365 16.5723 
3.61834 2.286 16.5782 
3.63791 2.28835 16.5841 
3.65751 2.2907 16.59 
3.55989 2.28614 16.5605 
3.57933 2.28849 16.5664 
3.59882 2.29083 16.5723 
3.61834 2.29319 16.5782 
3.63791 2.29554 16.5841 
3.65751 2.29791 16.59 
3.55989 2.29331 16.5605 
3.57933 2.29566 16.5664 
3.59882 2.29802 16.5723 
3.61834 2.30038 16.5782 
3.63791 2.30274 16.5841 
3.65751 2.30511 16.59 
3.67716 2.30748 16.5959 
3.55989 2.30048 16.5605 
3.57933 2.30283 16.5664 
3.59882 2.3052 16.5723 
3.61834 2.30756 16.5782 
3.63791 2.30994 16.5841 
3.65751 2.31231 16.59 
3.67716 2.3147 16.5959 
3.57933 2.31001 16.5664 
3.59882 2.31238 16.5723 
3.61834 2.31475 16.5782 
3.63791 2.31713 16.5841 
3.65751 2.31952 16.59 
3.67716 2.32191 16.5959 
3.69684 2.3243 16.6019 
3.59882 2.31956 16.5723 
3.61834 2.32194 16.5782 
3.63791 2.32433 16.5841 
3.65751 2.32672 16.59 
3.67716 2.32912 16.5959 
3.69684 2.33152 16.6019 
3.59882 2.32674 16.5723 
3.61834 2.32913 16.5782 
3.63791 2.33152 16.5841 
3.65751 2.33392 16.59 
3.67716 2.33633 16.5959 
3.69684 2.33874 16.6019 
3.59882 2.33392 16.5723 
3.61834 2.33632 16.5782 
3.63791 2.33872 16.5841 
3.65751 2.34113 16.59 
3.67716 2.34354 16.5959 
3.69684 2.34596 16.6019 
3.59882 2.3411 16.5723 
3.61834 2.34351 16.5782 
3.63791 2.34592 16.5841 
3.65751 2.34833 16.59 
3.67716 2.35075 16.5959 
3.69684 2.35317 16.6019 
3.71657 2.3556 16.6078 
3.59882 2.34828 16.5723 
3.61834 2.3507 16.5782 
3.63791 2.35311 16.5841 
3.65751 2.35553 16.59 
3.67716 2.35796 16.5959 
3.69684 2.36039 16.6019 
3.71657 2.36283 16.6078 
3.59882 2.35547 16.5723 
3.61834 2.35789 16.5782 
3.63791 2.36031 16.5841 
3.65751 2.36274 16.59 
3.67716 2.36517 16.5959 
3.69684 2.36761 16.6019 
3.71657 2.37005 16.6078 
3.73634 2.3725 16.6138 
3.59882 2.36265 16.5723 
3.61834 2.36507 16.5782 
3.63791 2.36751 16.5841 
3.65751 2.36994 16.59 
3.67716 2.37238 16.5959 
3.69684 2.37483 16.6019 
3.71657 2.37728 16.6078 
3.73634 2.37974 16.6138 
3.63791 2.3747 16.5841 
3.65751 2.37715 16.59 
3.67716 2.37959 16.5959 
3.69684 2.38205 16.6019 
3.71657 2.38451 16.6078 
3.73634 2.38697 16.6138 
3.63791 2.3819 16.5841 
3.65751 2.38435 16.59 
3.67716 2.3868 16.5959 
3.69684 2.38927 16.6019 
3.71657 2.39173 16.6078 
3.73634 2.3942 16.6138 
3.63791 2.38909 16.5841 
3.65751 2.39155 16.59 
3.67716 2.39402 16.5959 
3.69684 2.39648 16.6019 
3.71657 2.39896 16.6078 
3.73634 2.40144 16.6138 
3.63791 2.39629 16.5841 
3.65751 2.39876 16.59 
3.67716 2.40123 16.5959 
3.69684 2.4037 16.6019 
3.71657 2.40618 16.6078 
3.73634 2.40867 16.6138 
3.63791 2.40349 16.5841 
3.65751 2.40596 16.59 
3.67716 2.40844 16.5959 
3.69684 2.41092 16.6019 
3.71657 2.41341 16.6078 
3.73634 2.4159 16.6138 
3.75615 2.4184 16.6198 
3.85581 2.43098 16.6499 
3.87586 2.43351 16.6559 
3.89596 2.43604 16.662 
3.9161 2.43858 16.6681 
3.93628 2.44113 16.6742 
3.95651 2.44368 16.6803 
3.63791 2.41068 16.5841 
3.65751 2.41316 16.59 
3.67716 2.41565 16.5959 
3.69684 2.41814 16.6019 
3.71657 2.42064 16.6078 
3.73634 2.42314 16.6138 
3.75615 2.42564 16.6198 
3.85581 2.43825 16.6499 
3.87586 2.44079 16.6559 
3.89596 2.44333 16.662 
3.9161 2.44588 16.6681 
3.93628 2.44844 16.6742 
3.95651 2.451 16.6803 
3.97677 2.45356 16.6864 
3.65751 2.42037 16.59 
3.67716 2.42286 16.5959 
3.69684 2.42536 16.6019 
3.71657 2.42786 16.6078 
3.73634 2.43037 16.6138 
3.75615 2.43288 16.6198 
3.776 2.4354 16.6258 
3.85581 2.44553 16.6499 
3.87586 2.44808 16.6559 
3.89596 2.45063 16.662 
3.9161 2.45318 16.6681 
3.93628 2.45575 16.6742 
3.95651 2.45831 16.6803 
3.97677 2.46088 16.6864 
3.99708 2.46346 16.6925 
3.65751 2.42757 16.59 
3.67716 2.43007 16.5959 
3.69684 2.43258 16.6019 
3.71657 2.43509 16.6078 
3.73634 2.4376 16.6138 
3.75615 2.44012 16.6198 
3.776 2.44265 16.6258 
3.87586 2.45536 16.6559 
3.89596 2.45792 16.662 
3.9161 2.46049 16.6681 
3.93628 2.46305 16.6742 
3.95651 2.46563 16.6803 
3.97677 2.46821 16.6864 
3.99708 2.47079 16.6925 
3.67716 2.43728 16.5959 
3.69684 2.43979 16.6019 
3.71657 2.44231 16.6078 
3.73634 2.44484 16.6138 
3.75615 2.44737 16.6198 
3.87586 2.46265 16.6559 
3.89596 2.46522 16.662 
3.9161 2.46779 16.6681 
3.93628 2.47036 16.6742 
3.95651 2.47295 16.6803 
3.97677 2.47553 16.6864 
3.99708 2.47813 16.6925 
3.67716 2.44449 16.5959 
3.69684 2.44701 16.6019 
3.71657 2.44954 16.6078 
3.73634 2.45207 16.6138 
3.75615 2.45461 16.6198 
3.87586 2.46994 16.6559 
3.89596 2.47251 16.662 
3.9161 2.47509 16.6681 
3.93628 2.47767 16.6742 
3.95651 2.48026 16.6803 
3.97677 2.48286 16.6864 
3.99708 2.48546 16.6925 
4.01744 2.48806 16.6987 
3.71657 2.45676 16.6078 
3.73634 2.4593 16.6138 
3.89596 2.4798 16.662 
3.9161 2.48239 16.6681 
3.93628 2.48498 16.6742 
3.95651 2.48758 16.6803 
3.97677 2.49018 16.6864 
3.99708 2.49279 16.6925 
4.01744 2.4954 16.6987 
3.73634 2.46654 16.6138 
3.9161 2.48969 16.6681 
3.93628 2.49229 16.6742 
3.95651 2.49489 16.6803 
3.97677 2.4975 16.6864 
3.99708 2.50012 16.6925 
4.01744 2.50274 16.6987 
3.9161 2.49699 16.6681 
3.93628 2.4996 16.6742 
3.95651 2.50221 16.6803 
3.97677 2.50483 16.6864 
3.99708 2.50745 16.6925 
4.01744 2.51008 16.6987 
3.9161 2.50429 16.6681 
3.93628 2.50691 16.6742 
3.95651 2.50953 16.6803 
3.97677 2.51215 16.6864 
3.99708 2.51478 16.6925 
4.01744 2.51742 16.6987 
3.9161 2.51159 16.6681 
3.93628 2.51422 16.6742 
3.95651 2.51684 16.6803 
3.97677 2.51948 16.6864 
3.99708 2.52212 16.6925 
4.01744 2.52476 16.6987 
3.9161 2.51889 16.6681 
3.93628 2.52152 16.6742 
3.95651 2.52416 16.6803 
3.97677 2.5268 16.6864 
3.99708 2.52945 16.6925 
4.01744 2.5321 16.6987 
4.03783 2.53476 16.7048 
3.9161 2.5262 16.6681 
3.93628 2.52883 16.6742 
3.95651 2.53148 16.6803 
3.97677 2.53413 16.6864 
3.99708 2.53678 16.6925 
4.01744 2.53944 16.6987 
4.03783 2.5421 16.7048 
3.9161 2.5335 16.6681 
3.93628 2.53614 16.6742 
3.95651 2.53879 16.6803 
3.97677 2.54145 16.6864 
3.99708 2.54411 16.6925 
4.01744 2.54678 16.6987 
4.03783 2.54945 16.7048 
3.9161 2.5408 16.6681 
3.93628 2.54345 16.6742 
3.95651 2.54611 16.6803 
3.97677 2.54877 16.6864 
3.99708 2.55144 16.6925 
4.01744 2.55412 16.6987 
4.03783 2.5568 16.7048 
3.9161 2.5481 16.6681 
3.93628 2.55076 16.6742 
3.95651 2.55343 16.6803 
3.97677 2.5561 16.6864 
3.99708 2.55877 16.6925 
4.01744 2.56146 16.6987 
4.03783 2.56415 16.7048 
3.9161 2.5554 16.6681 
3.93628 2.55807 16.6742 
3.95651 2.56074 16.6803 
3.97677 2.56342 16.6864 
3.99708 2.56611 16.6925 
4.01744 2.5688 16.6987 
4.03783 2.57149 16.7048 
3.9161 2.5627 16.6681 
3.93628 2.56538 16.6742 
3.95651 2.56806 16.6803 
3.97677 2.57075 16.6864 
3.99708 2.57344 16.6925 
4.01744 2.57614 16.6987 
4.03783 2.57884 16.7048 
3.9161 2.57 16.6681 
3.93628 2.57269 16.6742 
3.95651 2.57537 16.6803 
3.97677 2.57807 16.6864 
3.99708 2.58077 16.6925 
4.01744 2.58348 16.6987 
4.03783 2.58619 16.7048 
3.9161 2.5773 16.6681 
3.93628 2.57999 16.6742 
3.95651 2.58269 16.6803 
3.97677 2.58539 16.6864 
3.99708 2.5881 16.6925 
4.01744 2.59082 16.6987 
3.9161 2.5846 16.6681 
3.93628 2.5873 16.6742 
3.95651 2.59001 16.6803 
3.97677 2.59272 16.6864 
3.99708 2.59543 16.6925 
4.01744 2.59815 16.6987 
3.9161 2.59191 16.6681 
3.93628 2.59461 16.6742 
3.95651 2.59732 16.6803 
3.97677 2.60004 16.6864 
3.99708 2.60277 16.6925 
4.01744 2.60549 16.6987 
3.89596 2.5965 16.662 
3.9161 2.59921 16.6681 
3.93628 2.60192 16.6742 
3.95651 2.60464 16.6803 
3.97677 2.60737 16.6864 
3.99708 2.6101 16.6925 
3.89596 2.60379 16.662 
3.9161 2.60651 16.6681 
3.93628 2.60923 16.6742 
3.95651 2.61196 16.6803 
3.97677 2.61469 16.6864 
3.99708 2.61743 16.6925 
3.87586 2.60837 16.6559 
3.89596 2.61109 16.662 
3.9161 2.61381 16.6681 
3.93628 2.61654 16.6742 
3.95651 2.61927 16.6803 
3.97677 2.62201 16.6864 
3.87586 2.61565 16.6559 
3.89596 2.61838 16.662 
3.9161 2.62111 16.6681 
3.93628 2.62385 16.6742 
3.95651 2.62659 16.6803 
3.97677 2.62934 16.6864 
3.85581 2.62021 16.6499 
3.87586 2.62294 16.6559 
3.89596 2.62567 16.662 
3.9161 2.62841 16.6681 
3.93628 2.63116 16.6742 
3.95651 2.63391 16.6803 
3.85581 2.62749 16.6499 
3.87586 2.63023 16.6559 
3.89596 2.63297 16.662 
3.9161 2.63571 16.6681 
3.93628 2.63846 16.6742 
3.83579 2.63203 16.6438 
3.85581 2.63477 16.6499 
3.87586 2.63751 16.6559 
3.89596 2.64026 16.662 
3.9161 2.64301 16.6681 
3.93628 2.64577 16.6742 
3.83579 2.6393 16.6438 
3.85581 2.64205 16.6499 
3.87586 2.6448 16.6559 
3.89596 2.64755 16.662 
3.9161 2.65032 16.6681 
3.79589 2.64109 16.6318 
3.81582 2.64383 16.6378 
3.83579 2.64657 16.6438 
3.85581 2.64933 16.6499 
3.87586 2.65208 16.6559 
3.89596 2.65485 16.662 
3.776 2.6456 16.6258 
3.79589 2.64834 16.6318 
3.81582 2.65109 16.6378 
3.83579 2.65385 16.6438 
3.85581 2.6566 16.6499 
3.75615 2.65011 16.6198 
3.776 2.65285 16.6258 
3.79589 2.6556 16.6318 
3.81582 2.65835 16.6378 
3.83579 2.66112 16.6438 
3.85581 2.66388 16.6499 
3.75615 2.65735 16.6198 
3.776 2.6601 16.6258 
3.79589 2.66286 16.6318 
3.81582 2.66562 16.6378 
3.83579 2.66839 16.6438 
3.85581 2.67116 16.6499 
3.75615 2.66459 16.6198 
3.776 2.66735 16.6258 
3.79589 2.67011 16.6318 
3.81582 2.67288 16.6378 
3.83579 2.67566 16.6438 
3.85581 2.67844 16.6499 
3.87586 2.68123 16.6559 
3.89596 2.68402 16.662 
3.75615 2.67183 16.6198 
3.776 2.67459 16.6258 
3.79589 2.67737 16.6318 
3.81582 2.68014 16.6378 
3.83579 2.68293 16.6438 
3.85581 2.68572 16.6499 
3.87586 2.68851 16.6559 
3.89596 2.69131 16.662 
3.79589 2.68462 16.6318 
3.81582 2.68741 16.6378 
3.83579 2.6902 16.6438 
3.85581 2.693 16.6499 
3.87586 2.6958 16.6559 
3.89596 2.69861 16.662 
3.9161 2.70142 16.6681 
3.93628 2.70424 16.6742 
3.79589 2.69188 16.6318 
3.81582 2.69467 16.6378 
3.83579 2.69747 16.6438 
3.85581 2.70027 16.6499 
3.87586 2.70309 16.6559 
3.89596 2.7059 16.662 
3.9161 2.70872 16.6681 
3.93628 2.71155 16.6742 
3.83579 2.70474 16.6438 
3.85581 2.70755 16.6499 
3.87586 2.71037 16.6559 
3.89596 2.7132 16.662 
3.9161 2.71603 16.6681 
3.93628 2.71886 16.6742 
3.95651 2.7217 16.6803 
3.83579 2.71201 16.6438 
3.85581 2.71483 16.6499 
3.87586 2.71766 16.6559 
3.89596 2.72049 16.662 
3.9161 2.72333 16.6681 
3.93628 2.72617 16.6742 
3.95651 2.72902 16.6803 
3.97677 2.73187 16.6864 
3.83579 2.71928 16.6438 
3.85581 2.72211 16.6499 
3.87586 2.72494 16.6559 
3.89596 2.72778 16.662 
3.9161 2.73063 16.6681 
3.93628 2.73348 16.6742 
3.95651 2.73634 16.6803 
3.97677 2.7392 16.6864 
3.83579 2.72655 16.6438 
3.85581 2.72939 16.6499 
3.87586 2.73223 16.6559 
3.89596 2.73508 16.662 
3.9161 2.73793 16.6681 
3.93628 2.74079 16.6742 
3.95651 2.74365 16.6803 
3.97677 2.74652 16.6864 
3.83579 2.73382 16.6438 
3.85581 2.73667 16.6499 
3.87586 2.73952 16.6559 
3.89596 2.74237 16.662 
3.9161 2.74523 16.6681 
3.93628 2.7481 16.6742 
3.95651 2.75097 16.6803 
3.97677 2.75385 16.6864 
3.83579 2.7411 16.6438 
3.85581 2.74395 16.6499 
3.87586 2.7468 16.6559 
3.89596 2.74966 16.662 
3.9161 2.75253 16.6681 
3.93628 2.75541 16.6742 
3.95651 2.75829 16.6803 
3.97677 2.76117 16.6864 
3.83579 2.74837 16.6438 
3.85581 2.75122 16.6499 
3.87586 2.75409 16.6559 
3.89596 2.75696 16.662 
3.9161 2.75983 16.6681 
3.93628 2.76271 16.6742 
3.95651 2.7656 16.6803 
3.83579 2.75564 16.6438 
3.85581 2.7585 16.6499 
3.87586 2.76137 16.6559 
3.89596 2.76425 16.662 
3.9161 2.76713 16.6681 
3.93628 2.77002 16.6742 
3.95651 2.77292 16.6803 
3.83579 2.76291 16.6438 
3.85581 2.76578 16.6499 
3.87586 2.76866 16.6559 
3.89596 2.77154 16.662 
3.9161 2.77443 16.6681 
3.93628 2.77733 16.6742 
3.83579 2.77018 16.6438 
3.85581 2.77306 16.6499 
3.87586 2.77594 16.6559 
3.89596 2.77884 16.662 
3.9161 2.78174 16.6681 
3.93628 2.78464 16.6742 
3.83579 2.77745 16.6438 
3.85581 2.78034 16.6499 
3.87586 2.78323 16.6559 
3.89596 2.78613 16.662 
3.9161 2.78904 16.6681 
3.93628 2.79195 16.6742 
3.81582 2.78183 16.6378 
3.83579 2.78472 16.6438 
3.85581 2.78762 16.6499 
3.87586 2.79052 16.6559 
3.9161 2.79634 16.6681 
3.93628 2.79926 16.6742 
3.81582 2.78909 16.6378 
3.83579 2.79199 16.6438 
3.85581 2.79489 16.6499 
3.81582 2.79636 16.6378 
3.83579 2.79926 16.6438 
3.85581 2.80217 16.6499 
3.87586 2.80509 16.6559 
3.81582 2.80362 16.6378 
3.83579 2.80653 16.6438 
3.85581 2.80945 16.6499 
3.87586 2.81237 16.6559 
3.81582 2.81088 16.6378 
3.83579 2.8138 16.6438 
3.85581 2.81673 16.6499 
3.81582 2.81815 16.6378 
3.83579 2.82107 16.6438 
3.85581 2.82401 16.6499 
3.79589 2.82248 16.6318 
3.81582 2.82541 16.6378 
3.83579 2.82834 16.6438 
3.79589 2.82974 16.6318 
3.81582 2.83267 16.6378 
2.93495 2.04995 16.3487 
2.95332 2.05199 16.3534 
2.97172 2.05402 16.3582 
3.00865 2.0581 16.3677 
3.08294 2.06631 16.3867 
3.10161 2.06837 16.3915 
3.13905 2.07251 16.4011 
3.15783 2.07459 16.406 
3.17665 2.07666 16.4108 
3.13905 2.07951 16.4011 
3.15783 2.08159 16.406 
3.17665 2.08368 16.4108 
3.1955 2.08577 16.4156 
3.21439 2.08787 16.4205 
3.23332 2.08996 16.4253 
3.25229 2.09207 16.4302 
3.15783 2.0886 16.406 
3.17665 2.0907 16.4108 
3.1955 2.09279 16.4156 
3.21439 2.0949 16.4205 
3.23332 2.097 16.4253 
3.25229 2.09911 16.4302 
3.2713 2.10123 16.4351 
3.15783 2.09561 16.406 
3.17665 2.09771 16.4108 
3.1955 2.09982 16.4156 
3.21439 2.10192 16.4205 
3.23332 2.10404 16.4253 
3.25229 2.10616 16.4302 
3.2713 2.10828 16.4351 
3.29034 2.1104 16.44 
3.1955 2.10684 16.4156 
3.21439 2.10895 16.4205 
3.23332 2.11107 16.4253 
3.25229 2.1132 16.4302 
3.2713 2.11533 16.4351 
3.29034 2.11746 16.44 
3.30942 2.1196 16.4449 
3.32855 2.12174 16.4498 
3.21439 2.11598 16.4205 
3.23332 2.11811 16.4253 
3.25229 2.12024 16.4302 
3.2713 2.12238 16.4351 
3.29034 2.12452 16.44 
3.30942 2.12666 16.4449 
3.32855 2.12881 16.4498 
3.46348 2.14398 16.4844 
3.48292 2.14616 16.4894 
3.50239 2.14835 16.4944 
3.52191 2.15054 16.4994 
3.54146 2.15274 16.5045 
3.56105 2.15494 16.5095 
3.23332 2.12515 16.4253 
3.25229 2.12729 16.4302 
3.2713 2.12943 16.4351 
3.29034 2.13158 16.44 
3.30942 2.13373 16.4449 
3.32855 2.13588 16.4498 
3.34771 2.13804 16.4547 
3.42474 2.14673 16.4745 
3.44409 2.14891 16.4795 
3.46348 2.1511 16.4844 
3.48292 2.15329 16.4894 
3.50239 2.15548 16.4944 
3.52191 2.15768 16.4994 
3.54146 2.15989 16.5045 
3.56105 2.1621 16.5095 
3.58069 2.16431 16.5145 
3.60036 2.16653 16.5196 
3.23332 2.13219 16.4253 
3.25229 2.13433 16.4302 
3.2713 2.13648 16.4351 
3.29034 2.13864 16.44 
3.30942 2.14079 16.4449 
3.32855 2.14296 16.4498 
3.34771 2.14512 16.4547 
3.46348 2.15822 16.4844 
3.48292 2.16042 16.4894 
3.50239 2.16262 16.4944 
3.52191 2.16483 16.4994 
3.54146 2.16704 16.5045 
3.56105 2.16926 16.5095 
3.58069 2.17148 16.5145 
3.60036 2.1737 16.5196 
3.29034 2.14569 16.44 
3.30942 2.14786 16.4449 
3.32855 2.15003 16.4498 
3.34771 2.1522 16.4547 
3.50239 2.16976 16.4944 
3.52191 2.17197 16.4994 
3.54146 2.17419 16.5045 
3.56105 2.17642 16.5095 
3.58069 2.17864 16.5145 
3.60036 2.18088 16.5196 
3.62007 2.18312 16.5246 
3.63983 2.18536 16.5297 
3.30942 2.15492 16.4449 
3.32855 2.1571 16.4498 
3.50239 2.1769 16.4944 
3.52191 2.17912 16.4994 
3.54146 2.18134 16.5045 
3.56105 2.18358 16.5095 
3.58069 2.18581 16.5145 
3.60036 2.18805 16.5196 
3.62007 2.1903 16.5246 
3.63983 2.19255 16.5297 
3.54146 2.1885 16.5045 
3.56105 2.19074 16.5095 
3.58069 2.19298 16.5145 
3.60036 2.19523 16.5196 
3.62007 2.19748 16.5246 
3.63983 2.19973 16.5297 
3.65962 2.202 16.5348 
3.54146 2.19565 16.5045 
3.56105 2.19789 16.5095 
3.58069 2.20014 16.5145 
3.60036 2.2024 16.5196 
3.62007 2.20466 16.5246 
3.63983 2.20692 16.5297 
3.65962 2.20919 16.5348 
3.54146 2.2028 16.5045 
3.56105 2.20505 16.5095 
3.58069 2.20731 16.5145 
3.60036 2.20957 16.5196 
3.62007 2.21184 16.5246 
3.63983 2.21411 16.5297 
3.65962 2.21639 16.5348 
3.54146 2.20995 16.5045 
3.56105 2.21221 16.5095 
3.58069 2.21448 16.5145 
3.60036 2.21675 16.5196 
3.62007 2.21902 16.5246 
3.63983 2.2213 16.5297 
3.65962 2.22358 16.5348 
3.58069 2.22164 16.5145 
3.60036 2.22392 16.5196 
3.62007 2.2262 16.5246 
3.63983 2.22849 16.5297 
3.65962 2.23078 16.5348 
3.67946 2.23308 16.5399 
3.58069 2.22881 16.5145 
3.60036 2.2311 16.5196 
3.62007 2.23338 16.5246 
3.63983 2.23568 16.5297 
3.65962 2.23798 16.5348 
3.67946 2.24028 16.5399 
3.58069 2.23598 16.5145 
3.60036 2.23827 16.5196 
3.62007 2.24057 16.5246 
3.63983 2.24287 16.5297 
3.65962 2.24517 16.5348 
3.67946 2.24748 16.5399 
3.58069 2.24314 16.5145 
3.60036 2.24544 16.5196 
3.62007 2.24775 16.5246 
3.63983 2.25006 16.5297 
3.65962 2.25237 16.5348 
3.67946 2.25469 16.5399 
3.62007 2.25493 16.5246 
3.63983 2.25724 16.5297 
3.65962 2.25956 16.5348 
3.67946 2.26189 16.5399 
3.69934 2.26422 16.545 
3.62007 2.26211 16.5246 
3.63983 2.26443 16.5297 
3.65962 2.26676 16.5348 
3.67946 2.26909 16.5399 
3.69934 2.27143 16.545 
3.71925 2.27377 16.5501 
3.62007 2.26929 16.5246 
3.63983 2.27162 16.5297 
3.65962 2.27396 16.5348 
3.67946 2.2763 16.5399 
3.69934 2.27864 16.545 
3.71925 2.28099 16.5501 
3.62007 2.27647 16.5246 
3.63983 2.27881 16.5297 
3.65962 2.28115 16.5348 
3.67946 2.2835 16.5399 
3.69934 2.28585 16.545 
3.71925 2.28821 16.5501 
3.62007 2.28365 16.5246 
3.63983 2.286 16.5297 
3.65962 2.28835 16.5348 
3.67946 2.2907 16.5399 
3.69934 2.29306 16.545 
3.71925 2.29543 16.5501 
3.73921 2.2978 16.5552 
3.62007 2.29083 16.5246 
3.63983 2.29319 16.5297 
3.65962 2.29554 16.5348 
3.67946 2.29791 16.5399 
3.69934 2.30027 16.545 
3.71925 2.30265 16.5501 
3.73921 2.30502 16.5552 
3.62007 2.29802 16.5246 
3.63983 2.30038 16.5297 
3.65962 2.30274 16.5348 
3.67946 2.30511 16.5399 
3.69934 2.30748 16.545 
3.71925 2.30986 16.5501 
3.73921 2.31225 16.5552 
3.75921 2.31464 16.5604 
3.62007 2.3052 16.5246 
3.63983 2.30756 16.5297 
3.65962 2.30994 16.5348 
3.67946 2.31231 16.5399 
3.69934 2.3147 16.545 
3.71925 2.31708 16.5501 
3.73921 2.31947 16.5552 
3.75921 2.32187 16.5604 
3.63983 2.31475 16.5297 
3.65962 2.31713 16.5348 
3.67946 2.31952 16.5399 
3.69934 2.32191 16.545 
3.71925 2.3243 16.5501 
3.73921 2.3267 16.5552 
3.75921 2.3291 16.5604 
3.63983 2.32194 16.5297 
3.65962 2.32433 16.5348 
3.67946 2.32672 16.5399 
3.69934 2.32912 16.545 
3.71925 2.33152 16.5501 
3.73921 2.33393 16.5552 
3.75921 2.33634 16.5604 
3.63983 2.32913 16.5297 
3.65962 2.33152 16.5348 
3.67946 2.33392 16.5399 
3.69934 2.33633 16.545 
3.71925 2.33874 16.5501 
3.73921 2.34115 16.5552 
3.75921 2.34357 16.5604 
3.65962 2.33872 16.5348 
3.67946 2.34113 16.5399 
3.69934 2.34354 16.545 
3.71925 2.34596 16.5501 
3.73921 2.34838 16.5552 
3.75921 2.3508 16.5604 
3.77925 2.35324 16.5655 
3.65962 2.34592 16.5348 
3.67946 2.34833 16.5399 
3.69934 2.35075 16.545 
3.71925 2.35317 16.5501 
3.73921 2.3556 16.5552 
3.75921 2.35804 16.5604 
3.77925 2.36048 16.5655 
3.65962 2.35311 16.5348 
3.67946 2.35553 16.5399 
3.69934 2.35796 16.545 
3.71925 2.36039 16.5501 
3.73921 2.36283 16.5552 
3.75921 2.36527 16.5604 
3.77925 2.36772 16.5655 
3.65962 2.36031 16.5348 
3.67946 2.36274 16.5399 
3.69934 2.36517 16.545 
3.71925 2.36761 16.5501 
3.73921 2.37005 16.5552 
3.75921 2.3725 16.5604 
3.77925 2.37496 16.5655 
3.79934 2.37742 16.5707 
3.65962 2.36751 16.5348 
3.67946 2.36994 16.5399 
3.69934 2.37238 16.545 
3.71925 2.37483 16.5501 
3.73921 2.37728 16.5552 
3.75921 2.37974 16.5604 
3.77925 2.3822 16.5655 
3.79934 2.38467 16.5707 
3.67946 2.37715 16.5399 
3.69934 2.37959 16.545 
3.71925 2.38205 16.5501 
3.73921 2.38451 16.5552 
3.75921 2.38697 16.5604 
3.77925 2.38944 16.5655 
3.79934 2.39191 16.5707 
3.67946 2.38435 16.5399 
3.69934 2.3868 16.545 
3.71925 2.38927 16.5501 
3.73921 2.39173 16.5552 
3.75921 2.3942 16.5604 
3.77925 2.39668 16.5655 
3.79934 2.39916 16.5707 
3.69934 2.39402 16.545 
3.71925 2.39648 16.5501 
3.73921 2.39896 16.5552 
3.75921 2.40144 16.5604 
3.77925 2.40392 16.5655 
3.79934 2.40641 16.5707 
3.81946 2.4089 16.5758 
3.69934 2.40123 16.545 
3.71925 2.4037 16.5501 
3.73921 2.40618 16.5552 
3.75921 2.40867 16.5604 
3.77925 2.41116 16.5655 
3.79934 2.41366 16.5707 
3.81946 2.41616 16.5758 
3.92071 2.42875 16.6018 
3.94109 2.43128 16.6071 
3.96151 2.43382 16.6123 
3.98197 2.43636 16.6176 
4.00248 2.43891 16.6228 
4.02303 2.44147 16.6281 
4.04362 2.44403 16.6334 
3.71925 2.41092 16.5501 
3.73921 2.41341 16.5552 
3.75921 2.4159 16.5604 
3.77925 2.4184 16.5655 
3.79934 2.42091 16.5707 
3.81946 2.42342 16.5758 
3.83963 2.42593 16.581 
3.88009 2.43098 16.5914 
3.90038 2.43351 16.5966 
3.92071 2.43604 16.6018 
3.94109 2.43858 16.6071 
3.96151 2.44113 16.6123 
3.98197 2.44368 16.6176 
4.00248 2.44624 16.6228 
4.02303 2.4488 16.6281 
4.04362 2.45137 16.6334 
4.06425 2.45394 16.6387 
4.08493 2.45652 16.644 
3.71925 2.41814 16.5501 
3.73921 2.42064 16.5552 
3.75921 2.42314 16.5604 
3.77925 2.42564 16.5655 
3.79934 2.42815 16.5707 
3.81946 2.43067 16.5758 
3.83963 2.43319 16.581 
3.88009 2.43825 16.5914 
3.90038 2.44079 16.5966 
3.92071 2.44333 16.6018 
3.94109 2.44588 16.6071 
3.96151 2.44844 16.6123 
3.98197 2.451 16.6176 
4.00248 2.45356 16.6228 
4.02303 2.45613 16.6281 
4.04362 2.45871 16.6334 
4.06425 2.46129 16.6387 
4.08493 2.46387 16.644 
3.73921 2.42786 16.5552 
3.75921 2.43037 16.5604 
3.77925 2.43288 16.5655 
3.79934 2.4354 16.5707 
3.81946 2.43793 16.5758 
3.83963 2.44046 16.581 
3.94109 2.45318 16.6071 
3.96151 2.45575 16.6123 
3.98197 2.45831 16.6176 
4.00248 2.46088 16.6228 
4.02303 2.46346 16.6281 
4.04362 2.46604 16.6334 
4.06425 2.46863 16.6387 
4.08493 2.47123 16.644 
4.10565 2.47383 16.6493 
4.12642 2.47643 16.6546 
3.73921 2.43509 16.5552 
3.75921 2.4376 16.5604 
3.77925 2.44012 16.5655 
3.79934 2.44265 16.5707 
3.81946 2.44518 16.5758 
3.94109 2.46049 16.6071 
3.96151 2.46305 16.6123 
3.98197 2.46563 16.6176 
4.00248 2.46821 16.6228 
4.02303 2.47079 16.6281 
4.04362 2.47338 16.6334 
4.06425 2.47598 16.6387 
4.08493 2.47858 16.644 
4.10565 2.48119 16.6493 
4.12642 2.4838 16.6546 
3.75921 2.44484 16.5604 
3.77925 2.44737 16.5655 
3.98197 2.47295 16.6176 
4.00248 2.47553 16.6228 
4.02303 2.47813 16.6281 
4.04362 2.48072 16.6334 
4.06425 2.48333 16.6387 
4.08493 2.48594 16.644 
4.10565 2.48855 16.6493 
4.12642 2.49117 16.6546 
3.98197 2.48026 16.6176 
4.00248 2.48286 16.6228 
4.02303 2.48546 16.6281 
4.04362 2.48806 16.6334 
4.06425 2.49067 16.6387 
4.08493 2.49329 16.644 
4.10565 2.49591 16.6493 
4.12642 2.49854 16.6546 
4.00248 2.49018 16.6228 
4.02303 2.49279 16.6281 
4.04362 2.4954 16.6334 
4.06425 2.49802 16.6387 
4.08493 2.50065 16.644 
4.10565 2.50328 16.6493 
4.12642 2.50591 16.6546 
4.02303 2.50012 16.6281 
4.04362 2.50274 16.6334 
4.06425 2.50537 16.6387 
4.08493 2.508 16.644 
4.10565 2.51064 16.6493 
4.12642 2.51328 16.6546 
4.02303 2.50745 16.6281 
4.04362 2.51008 16.6334 
4.06425 2.51272 16.6387 
4.08493 2.51536 16.644 
4.10565 2.518 16.6493 
4.12642 2.52065 16.6546 
4.02303 2.51478 16.6281 
4.04362 2.51742 16.6334 
4.06425 2.52006 16.6387 
4.08493 2.52271 16.644 
4.10565 2.52536 16.6493 
4.12642 2.52802 16.6546 
4.02303 2.52212 16.6281 
4.04362 2.52476 16.6334 
4.06425 2.52741 16.6387 
4.08493 2.53007 16.644 
4.10565 2.53273 16.6493 
4.12642 2.53539 16.6546 
4.02303 2.52945 16.6281 
4.04362 2.5321 16.6334 
4.06425 2.53476 16.6387 
4.08493 2.53742 16.644 
4.10565 2.54009 16.6493 
4.12642 2.54276 16.6546 
4.02303 2.53678 16.6281 
4.04362 2.53944 16.6334 
4.06425 2.5421 16.6387 
4.08493 2.54478 16.644 
4.10565 2.54745 16.6493 
4.12642 2.55013 16.6546 
4.02303 2.54411 16.6281 
4.04362 2.54678 16.6334 
4.06425 2.54945 16.6387 
4.08493 2.55213 16.644 
4.10565 2.55481 16.6493 
4.12642 2.5575 16.6546 
4.02303 2.55144 16.6281 
4.04362 2.55412 16.6334 
4.06425 2.5568 16.6387 
4.08493 2.55949 16.644 
4.10565 2.56218 16.6493 
4.12642 2.56487 16.6546 
4.02303 2.55877 16.6281 
4.04362 2.56146 16.6334 
4.06425 2.56415 16.6387 
4.08493 2.56684 16.644 
4.10565 2.56954 16.6493 
4.12642 2.57225 16.6546 
4.02303 2.56611 16.6281 
4.04362 2.5688 16.6334 
4.06425 2.57149 16.6387 
4.08493 2.57419 16.644 
4.10565 2.5769 16.6493 
4.12642 2.57962 16.6546 
4.02303 2.57344 16.6281 
4.04362 2.57614 16.6334 
4.06425 2.57884 16.6387 
4.08493 2.58155 16.644 
4.10565 2.58426 16.6493 
4.12642 2.58699 16.6546 
4.02303 2.58077 16.6281 
4.04362 2.58348 16.6334 
4.06425 2.58619 16.6387 
4.08493 2.5889 16.644 
4.10565 2.59163 16.6493 
4.12642 2.59436 16.6546 
4.14722 2.59709 16.66 
4.02303 2.5881 16.6281 
4.04362 2.59082 16.6334 
4.06425 2.59353 16.6387 
4.08493 2.59626 16.644 
4.10565 2.59899 16.6493 
4.12642 2.60173 16.6546 
4.02303 2.59543 16.6281 
4.04362 2.59815 16.6334 
4.06425 2.60088 16.6387 
4.08493 2.60361 16.644 
4.10565 2.60635 16.6493 
4.12642 2.6091 16.6546 
4.02303 2.60277 16.6281 
4.04362 2.60549 16.6334 
4.06425 2.60823 16.6387 
4.08493 2.61097 16.644 
4.10565 2.61372 16.6493 
4.12642 2.61647 16.6546 
4.00248 2.60737 16.6228 
4.02303 2.6101 16.6281 
4.04362 2.61283 16.6334 
4.06425 2.61558 16.6387 
4.08493 2.61832 16.644 
4.00248 2.61469 16.6228 
4.02303 2.61743 16.6281 
4.04362 2.62017 16.6334 
4.06425 2.62292 16.6387 
4.08493 2.62568 16.644 
3.98197 2.61927 16.6176 
4.00248 2.62201 16.6228 
4.02303 2.62476 16.6281 
4.04362 2.62751 16.6334 
4.06425 2.63027 16.6387 
3.98197 2.62659 16.6176 
4.00248 2.62934 16.6228 
4.02303 2.63209 16.6281 
4.04362 2.63485 16.6334 
4.06425 2.63762 16.6387 
3.96151 2.63116 16.6123 
3.98197 2.63391 16.6176 
4.00248 2.63666 16.6228 
4.02303 2.63942 16.6281 
4.04362 2.64219 16.6334 
3.94109 2.63571 16.6071 
3.96151 2.63846 16.6123 
3.98197 2.64122 16.6176 
4.00248 2.64399 16.6228 
4.02303 2.64676 16.6281 
4.04362 2.64953 16.6334 
3.94109 2.64301 16.6071 
3.96151 2.64577 16.6123 
3.98197 2.64854 16.6176 
4.00248 2.65131 16.6228 
4.02303 2.65409 16.6281 
3.92071 2.64755 16.6018 
3.94109 2.65032 16.6071 
3.96151 2.65308 16.6123 
3.98197 2.65586 16.6176 
4.00248 2.65863 16.6228 
4.02303 2.66142 16.6281 
3.90038 2.65208 16.5966 
3.92071 2.65485 16.6018 
3.94109 2.65762 16.6071 
3.96151 2.66039 16.6123 
3.98197 2.66317 16.6176 
4.00248 2.66596 16.6228 
3.88009 2.6566 16.5914 
3.90038 2.65937 16.5966 
3.92071 2.66214 16.6018 
3.94109 2.66492 16.6071 
3.96151 2.6677 16.6123 
3.98197 2.67049 16.6176 
4.00248 2.67328 16.6228 
3.88009 2.66388 16.5914 
3.90038 2.66666 16.5966 
3.92071 2.66943 16.6018 
3.94109 2.67222 16.6071 
3.96151 2.67501 16.6123 
3.98197 2.6778 16.6176 
4.00248 2.68061 16.6228 
3.88009 2.67116 16.5914 
3.90038 2.67394 16.5966 
3.92071 2.67673 16.6018 
3.94109 2.67952 16.6071 
3.96151 2.68232 16.6123 
3.98197 2.68512 16.6176 
4.00248 2.68793 16.6228 
3.85984 2.67566 16.5862 
3.88009 2.67844 16.5914 
3.90038 2.68123 16.5966 
3.92071 2.68402 16.6018 
3.94109 2.68682 16.6071 
3.96151 2.68963 16.6123 
3.98197 2.69244 16.6176 
4.00248 2.69525 16.6228 
4.02303 2.69808 16.6281 
4.04362 2.70091 16.6334 
3.85984 2.68293 16.5862 
3.88009 2.68572 16.5914 
3.90038 2.68851 16.5966 
3.92071 2.69131 16.6018 
3.94109 2.69412 16.6071 
3.96151 2.69693 16.6123 
3.98197 2.69975 16.6176 
4.00248 2.70258 16.6228 
4.02303 2.70541 16.6281 
4.04362 2.70825 16.6334 
4.06425 2.71109 16.6387 
3.90038 2.6958 16.5966 
3.92071 2.69861 16.6018 
3.94109 2.70142 16.6071 
3.96151 2.70424 16.6123 
3.98197 2.70707 16.6176 
4.00248 2.7099 16.6228 
4.02303 2.71274 16.6281 
4.04362 2.71559 16.6334 
4.06425 2.71844 16.6387 
4.08493 2.72129 16.644 
3.90038 2.70309 16.5966 
3.92071 2.7059 16.6018 
3.94109 2.70872 16.6071 
3.96151 2.71155 16.6123 
3.98197 2.71439 16.6176 
4.00248 2.71723 16.6228 
4.02303 2.72007 16.6281 
4.04362 2.72292 16.6334 
4.06425 2.72578 16.6387 
4.08493 2.72865 16.644 
3.90038 2.71037 16.5966 
3.92071 2.7132 16.6018 
3.94109 2.71603 16.6071 
3.96151 2.71886 16.6123 
3.98197 2.7217 16.6176 
4.00248 2.72455 16.6228 
4.02303 2.7274 16.6281 
4.04362 2.73026 16.6334 
4.06425 2.73313 16.6387 
4.08493 2.736 16.644 
3.90038 2.71766 16.5966 
3.92071 2.72049 16.6018 
3.94109 2.72333 16.6071 
3.96151 2.72617 16.6123 
3.98197 2.72902 16.6176 
4.00248 2.73187 16.6228 
4.02303 2.73474 16.6281 
4.04362 2.7376 16.6334 
4.06425 2.74048 16.6387 
4.08493 2.74336 16.644 
3.94109 2.73063 16.6071 
3.96151 2.73348 16.6123 
3.98197 2.73634 16.6176 
4.00248 2.7392 16.6228 
4.02303 2.74207 16.6281 
4.04362 2.74494 16.6334 
4.06425 2.74782 16.6387 
4.08493 2.75071 16.644 
3.94109 2.73793 16.6071 
3.96151 2.74079 16.6123 
3.98197 2.74365 16.6176 
4.00248 2.74652 16.6228 
4.02303 2.7494 16.6281 
4.04362 2.75228 16.6334 
4.06425 2.75517 16.6387 
4.08493 2.75807 16.644 
3.94109 2.74523 16.6071 
3.96151 2.7481 16.6123 
3.98197 2.75097 16.6176 
4.00248 2.75385 16.6228 
4.02303 2.75673 16.6281 
4.04362 2.75962 16.6334 
4.06425 2.76252 16.6387 
4.08493 2.76542 16.644 
3.94109 2.75253 16.6071 
3.96151 2.75541 16.6123 
3.98197 2.75829 16.6176 
4.00248 2.76117 16.6228 
4.02303 2.76406 16.6281 
4.04362 2.76696 16.6334 
4.06425 2.76987 16.6387 
4.08493 2.77278 16.644 
3.94109 2.75983 16.6071 
3.96151 2.76271 16.6123 
3.98197 2.7656 16.6176 
4.00248 2.7685 16.6228 
4.02303 2.77139 16.6281 
4.04362 2.7743 16.6334 
4.06425 2.77721 16.6387 
4.08493 2.78013 16.644 
3.94109 2.76713 16.6071 
3.96151 2.77002 16.6123 
3.98197 2.77292 16.6176 
4.00248 2.77582 16.6228 
4.02303 2.77873 16.6281 
4.04362 2.78164 16.6334 
4.06425 2.78456 16.6387 
4.08493 2.78749 16.644 
3.94109 2.77443 16.6071 
3.96151 2.77733 16.6123 
3.98197 2.78023 16.6176 
4.00248 2.78314 16.6228 
4.02303 2.78606 16.6281 
4.04362 2.78898 16.6334 
4.06425 2.79191 16.6387 
3.94109 2.78174 16.6071 
3.96151 2.78464 16.6123 
3.98197 2.78755 16.6176 
4.00248 2.79047 16.6228 
4.02303 2.79339 16.6281 
4.04362 2.79632 16.6334 
4.06425 2.79925 16.6387 
3.94109 2.78904 16.6071 
3.96151 2.79195 16.6123 
3.98197 2.79487 16.6176 
4.00248 2.79779 16.6228 
4.02303 2.80072 16.6281 
4.04362 2.80366 16.6334 
4.06425 2.8066 16.6387 
3.94109 2.79634 16.6071 
3.96151 2.79926 16.6123 
3.98197 2.80218 16.6176 
4.00248 2.80512 16.6228 
4.02303 2.80805 16.6281 
4.04362 2.811 16.6334 
3.94109 2.80364 16.6071 
3.96151 2.80657 16.6123 
3.98197 2.8095 16.6176 
4.00248 2.81244 16.6228 
4.02303 2.81539 16.6281 
4.04362 2.81834 16.6334 
4.06425 2.8213 16.6387 
3.96151 2.81388 16.6123 
3.98197 2.81682 16.6176 
4.00248 2.81976 16.6228 
4.02303 2.82272 16.6281 
4.00248 2.82709 16.6228 
3.90038 2.81966 16.5966 
3.90038 2.82695 16.5966 
3.90038 2.83423 16.5966 
3.85984 2.84289 16.5862 
3.00319 2.04911 16.341 
3.02186 2.05115 16.3449 
3.04056 2.05319 16.3489 
3.09688 2.05933 16.3609 
3.11573 2.06138 16.3649 
3.15355 2.06551 16.3729 
3.17251 2.06758 16.3769 
3.19151 2.06965 16.381 
3.04056 2.06015 16.3489 
3.11573 2.06837 16.3649 
3.15355 2.07251 16.3729 
3.17251 2.07459 16.3769 
3.19151 2.07666 16.381 
3.21055 2.07875 16.385 
3.22963 2.08084 16.3891 
3.24875 2.08293 16.3931 
3.2679 2.08502 16.3972 
3.2871 2.08712 16.4013 
3.30633 2.08923 16.4054 
3.19151 2.08368 16.381 
3.21055 2.08577 16.385 
3.22963 2.08787 16.3891 
3.24875 2.08996 16.3931 
3.2679 2.09207 16.3972 
3.2871 2.09417 16.4013 
3.30633 2.09629 16.4054 
3.3256 2.0984 16.4095 
3.21055 2.09279 16.385 
3.22963 2.0949 16.3891 
3.24875 2.097 16.3931 
3.2679 2.09911 16.3972 
3.2871 2.10123 16.4013 
3.30633 2.10334 16.4054 
3.3256 2.10547 16.4095 
3.34491 2.10759 16.4136 
3.21055 2.09982 16.385 
3.22963 2.10192 16.3891 
3.24875 2.10404 16.3931 
3.2679 2.10616 16.3972 
3.2871 2.10828 16.4013 
3.30633 2.1104 16.4054 
3.3256 2.11253 16.4095 
3.34491 2.11467 16.4136 
3.36426 2.11681 16.4177 
3.38365 2.11895 16.4218 
3.2871 2.11533 16.4013 
3.30633 2.11746 16.4054 
3.3256 2.1196 16.4095 
3.34491 2.12174 16.4136 
3.36426 2.12389 16.4177 
3.38365 2.12604 16.4218 
3.40307 2.12819 16.4259 
3.48118 2.13685 16.4426 
3.50081 2.13903 16.4467 
3.52047 2.14121 16.4509 
3.54018 2.1434 16.4551 
3.55993 2.14559 16.4593 
3.57971 2.14778 16.4635 
3.59954 2.14998 16.4677 
3.61941 2.15218 16.4719 
3.63932 2.15439 16.4762 
3.2871 2.12238 16.4013 
3.30633 2.12452 16.4054 
3.3256 2.12666 16.4095 
3.34491 2.12881 16.4136 
3.36426 2.13096 16.4177 
3.38365 2.13312 16.4218 
3.40307 2.13528 16.4259 
3.48118 2.14398 16.4426 
3.50081 2.14616 16.4467 
3.52047 2.14835 16.4509 
3.54018 2.15054 16.4551 
3.55993 2.15274 16.4593 
3.57971 2.15494 16.4635 
3.59954 2.15715 16.4677 
3.61941 2.15936 16.4719 
3.63932 2.16157 16.4762 
3.65927 2.16379 16.4804 
3.3256 2.13373 16.4095 
3.34491 2.13588 16.4136 
3.36426 2.13804 16.4177 
3.38365 2.14021 16.4218 
3.40307 2.14238 16.4259 
3.48118 2.1511 16.4426 
3.50081 2.15329 16.4467 
3.52047 2.15548 16.4509 
3.54018 2.15768 16.4551 
3.55993 2.15989 16.4593 
3.57971 2.1621 16.4635 
3.59954 2.16431 16.4677 
3.61941 2.16653 16.4719 
3.63932 2.16875 16.4762 
3.65927 2.17098 16.4804 
3.67926 2.17321 16.4847 
3.34491 2.14296 16.4136 
3.36426 2.14512 16.4177 
3.38365 2.1473 16.4218 
3.40307 2.14947 16.4259 
3.52047 2.16262 16.4509 
3.54018 2.16483 16.4551 
3.55993 2.16704 16.4593 
3.57971 2.16926 16.4635 
3.59954 2.17148 16.4677 
3.61941 2.1737 16.4719 
3.63932 2.17593 16.4762 
3.65927 2.17817 16.4804 
3.67926 2.18041 16.4847 
3.69929 2.18265 16.4889 
3.59954 2.17864 16.4677 
3.61941 2.18088 16.4719 
3.63932 2.18312 16.4762 
3.65927 2.18536 16.4804 
3.67926 2.1876 16.4847 
3.69929 2.18985 16.4889 
3.71936 2.19211 16.4932 
3.59954 2.18581 16.4677 
3.61941 2.18805 16.4719 
3.63932 2.1903 16.4762 
3.65927 2.19255 16.4804 
3.67926 2.1948 16.4847 
3.69929 2.19706 16.4889 
3.71936 2.19932 16.4932 
3.59954 2.19298 16.4677 
3.61941 2.19523 16.4719 
3.63932 2.19748 16.4762 
3.65927 2.19973 16.4804 
3.67926 2.202 16.4847 
3.69929 2.20426 16.4889 
3.71936 2.20653 16.4932 
3.59954 2.20014 16.4677 
3.61941 2.2024 16.4719 
3.63932 2.20466 16.4762 
3.65927 2.20692 16.4804 
3.67926 2.20919 16.4847 
3.69929 2.21147 16.4889 
3.71936 2.21374 16.4932 
3.63932 2.21184 16.4762 
3.65927 2.21411 16.4804 
3.67926 2.21639 16.4847 
3.69929 2.21867 16.4889 
3.71936 2.22095 16.4932 
3.73948 2.22324 16.4975 
3.63932 2.21902 16.4762 
3.65927 2.2213 16.4804 
3.67926 2.22358 16.4847 
3.69929 2.22587 16.4889 
3.71936 2.22817 16.4932 
3.73948 2.23046 16.4975 
3.63932 2.2262 16.4762 
3.65927 2.22849 16.4804 
3.67926 2.23078 16.4847 
3.69929 2.23308 16.4889 
3.71936 2.23538 16.4932 
3.73948 2.23768 16.4975 
3.75963 2.23999 16.5017 
3.63932 2.23338 16.4762 
3.65927 2.23568 16.4804 
3.67926 2.23798 16.4847 
3.69929 2.24028 16.4889 
3.71936 2.24259 16.4932 
3.73948 2.2449 16.4975 
3.75963 2.24722 16.5017 
3.65927 2.24287 16.4804 
3.67926 2.24517 16.4847 
3.69929 2.24748 16.4889 
3.71936 2.2498 16.4932 
3.73948 2.25212 16.4975 
3.75963 2.25444 16.5017 
3.77983 2.25677 16.506 
3.65927 2.25006 16.4804 
3.67926 2.25237 16.4847 
3.69929 2.25469 16.4889 
3.71936 2.25701 16.4932 
3.73948 2.25934 16.4975 
3.75963 2.26167 16.5017 
3.77983 2.26401 16.506 
3.67926 2.25956 16.4847 
3.69929 2.26189 16.4889 
3.71936 2.26422 16.4932 
3.73948 2.26655 16.4975 
3.75963 2.26889 16.5017 
3.77983 2.27124 16.506 
3.67926 2.26676 16.4847 
3.69929 2.26909 16.4889 
3.71936 2.27143 16.4932 
3.73948 2.27377 16.4975 
3.75963 2.27612 16.5017 
3.77983 2.27847 16.506 
3.67926 2.27396 16.4847 
3.69929 2.2763 16.4889 
3.71936 2.27864 16.4932 
3.73948 2.28099 16.4975 
3.75963 2.28335 16.5017 
3.77983 2.28571 16.506 
3.80007 2.28807 16.5103 
3.67926 2.28115 16.4847 
3.69929 2.2835 16.4889 
3.71936 2.28585 16.4932 
3.73948 2.28821 16.4975 
3.75963 2.29057 16.5017 
3.77983 2.29294 16.506 
3.80007 2.29531 16.5103 
3.67926 2.28835 16.4847 
3.69929 2.2907 16.4889 
3.71936 2.29306 16.4932 
3.73948 2.29543 16.4975 
3.75963 2.2978 16.5017 
3.77983 2.30017 16.506 
3.80007 2.30255 16.5103 
3.67926 2.29554 16.4847 
3.69929 2.29791 16.4889 
3.71936 2.30027 16.4932 
3.73948 2.30265 16.4975 
3.75963 2.30502 16.5017 
3.77983 2.3074 16.506 
3.80007 2.30979 16.5103 
3.71936 2.30748 16.4932 
3.73948 2.30986 16.4975 
3.75963 2.31225 16.5017 
3.77983 2.31464 16.506 
3.80007 2.31703 16.5103 
3.82035 2.31943 16.5146 
3.71936 2.3147 16.4932 
3.73948 2.31708 16.4975 
3.75963 2.31947 16.5017 
3.77983 2.32187 16.506 
3.80007 2.32427 16.5103 
3.82035 2.32668 16.5146 
3.71936 2.32191 16.4932 
3.73948 2.3243 16.4975 
3.75963 2.3267 16.5017 
3.77983 2.3291 16.506 
3.80007 2.33151 16.5103 
3.82035 2.33393 16.5146 
3.84067 2.33635 16.519 
3.71936 2.32912 16.4932 
3.73948 2.33152 16.4975 
3.75963 2.33393 16.5017 
3.77983 2.33634 16.506 
3.80007 2.33875 16.5103 
3.82035 2.34118 16.5146 
3.84067 2.3436 16.519 
3.71936 2.33633 16.4932 
3.73948 2.33874 16.4975 
3.75963 2.34115 16.5017 
3.77983 2.34357 16.506 
3.80007 2.346 16.5103 
3.82035 2.34842 16.5146 
3.84067 2.35086 16.519 
3.71936 2.34354 16.4932 
3.73948 2.34596 16.4975 
