VERSION .7
FIELDS x y z
SIZE 4 4 4
TYPE F F F
COUNT 1 1 1
WIDTH 1937
HEIGHT 1
VIEWPOINT 0 0 0 1 0 0 0
POINTS 1937
DATA ascii
1.95779 2.07218 15.9902 
1.93849 2.07434 15.9821 
1.91914 2.07649 15.9741 
1.89975 2.07866 15.966 
1.95779 2.07945 15.9902 
1.93849 2.08161 15.9821 
1.91914 2.08378 15.9741 
1.89975 2.08595 15.966 
1.95779 2.08672 15.9902 
1.93849 2.08889 15.9821 
1.91914 2.09107 15.9741 
1.89975 2.09325 15.966 
1.95779 2.09399 15.9902 
1.93849 2.09617 15.9821 
1.91914 2.09835 15.9741 
1.89975 2.10054 15.966 
1.95779 2.10126 15.9902 
1.93849 2.10345 15.9821 
1.91914 2.10564 15.9741 
1.89975 2.10783 15.966 
1.95779 2.10853 15.9902 
1.93849 2.11073 15.9821 
1.91914 2.11292 15.9741 
1.89975 2.11513 15.966 
1.95779 2.11581 15.9902 
1.93849 2.11801 15.9821 
1.91914 2.12021 15.9741 
1.95779 2.12308 15.9902 
1.93849 2.12528 15.9821 
1.91914 2.1275 15.9741 
1.95779 2.13035 15.9902 
1.93849 2.13256 15.9821 
1.91914 2.13478 15.9741 
1.97706 2.1354 15.9982 
1.95779 2.13762 15.9902 
1.93849 2.13984 15.9821 
1.97706 2.14266 15.9982 
1.95779 2.14489 15.9902 
1.93849 2.14712 15.9821 
1.97706 2.14993 15.9982 
1.95779 2.15216 15.9902 
1.93849 2.1544 15.9821 
1.97706 2.15719 15.9982 
1.95779 2.15943 15.9902 
1.93849 2.16168 15.9821 
1.99629 2.16221 16.0062 
1.97706 2.16445 15.9982 
1.95779 2.1667 15.9902 
1.93849 2.16895 15.9821 
1.99629 2.16947 16.0062 
1.97706 2.17172 15.9982 
1.95779 2.17397 15.9902 
1.93849 2.17623 15.9821 
1.99629 2.17672 16.0062 
1.97706 2.17898 15.9982 
1.95779 2.18124 15.9902 
1.93849 2.18351 15.9821 
1.99629 2.18398 16.0062 
1.97706 2.18624 15.9982 
1.95779 2.18851 15.9902 
1.99629 2.19123 16.0062 
1.97706 2.19351 15.9982 
1.95779 2.19578 15.9902 
2.01547 2.19621 16.0141 
1.99629 2.19849 16.0062 
1.97706 2.20077 15.9982 
1.95779 2.20306 15.9902 
2.03462 2.20118 16.0221 
2.01547 2.20346 16.0141 
1.99629 2.20574 16.0062 
1.97706 2.20803 15.9982 
1.95779 2.21033 15.9902 
2.03462 2.20842 16.0221 
2.01547 2.21071 16.0141 
1.99629 2.213 16.0062 
1.97706 2.2153 15.9982 
1.95779 2.2176 15.9902 
2.03462 2.21566 16.0221 
2.01547 2.21796 16.0141 
1.99629 2.22026 16.0062 
1.97706 2.22256 15.9982 
2.03462 2.2229 16.0221 
2.01547 2.2252 16.0141 
1.99629 2.22751 16.0062 
1.97706 2.22982 15.9982 
2.03462 2.23014 16.0221 
2.01547 2.23245 16.0141 
1.99629 2.23477 16.0062 
1.97706 2.23709 15.9982 
2.03462 2.23738 16.0221 
2.01547 2.2397 16.0141 
1.99629 2.24202 16.0062 
2.05373 2.24231 16.03 
2.03462 2.24463 16.0221 
2.01547 2.24695 16.0141 
1.99629 2.24928 16.0062 
2.05373 2.24954 16.03 
2.03462 2.25187 16.0221 
2.01547 2.2542 16.0141 
1.99629 2.25653 16.0062 
2.05373 2.25677 16.03 
2.03462 2.25911 16.0221 
2.01547 2.26145 16.0141 
1.99629 2.26379 16.0062 
2.05373 2.26401 16.03 
2.03462 2.26635 16.0221 
2.01547 2.26869 16.0141 
1.99629 2.27105 16.0062 
2.05373 2.27124 16.03 
2.03462 2.27359 16.0221 
2.01547 2.27594 16.0141 
1.99629 2.2783 16.0062 
2.03462 2.28083 16.0221 
2.01547 2.28319 16.0141 
2.639 1.08527 16.2783 
2.639 1.09227 16.2783 
2.639 1.11327 16.2783 
2.639 1.12028 16.2783 
2.639 1.12728 16.2783 
2.62091 1.12841 16.2713 
2.639 1.13428 16.2783 
2.62091 1.13541 16.2713 
2.639 1.14128 16.2783 
2.62091 1.14242 16.2713 
2.639 1.14828 16.2783 
2.58463 1.15174 16.2573 
2.60279 1.1576 16.2643 
2.58463 1.15876 16.2573 
2.60279 1.16462 16.2643 
2.58463 1.16578 16.2573 
2.32654 1.18239 16.1576 
2.30783 1.1836 16.1504 
2.60279 1.17163 16.2643 
2.40103 1.18469 16.1864 
2.30783 1.19073 16.1504 
2.25145 1.19438 16.1286 
2.58463 1.17983 16.2573 
2.32654 1.19664 16.1576 
2.30783 1.19786 16.1504 
2.28907 1.19908 16.1431 
2.27028 1.2003 16.1359 
2.25145 1.20153 16.1286 
2.23258 1.20276 16.1213 
2.60279 1.18566 16.2643 
2.28907 1.20621 16.1431 
2.27028 1.20745 16.1359 
2.25145 1.20868 16.1286 
2.23258 1.20992 16.1213 
2.60279 1.19268 16.2643 
2.28907 1.21335 16.1431 
2.27028 1.21459 16.1359 
2.25145 1.21583 16.1286 
2.23258 1.21708 16.1213 
2.21367 1.21832 16.114 
2.60279 1.19969 16.2643 
2.25145 1.22298 16.1286 
2.23258 1.22423 16.1213 
2.21367 1.22549 16.114 
2.19472 1.22674 16.1067 
2.23258 1.23139 16.1213 
2.21367 1.23265 16.114 
2.19472 1.23392 16.1067 
2.23258 1.23855 16.1213 
2.21367 1.23982 16.114 
2.19472 1.24109 16.1067 
2.21367 1.24699 16.114 
2.19472 1.24827 16.1067 
2.21367 1.25415 16.114 
2.19472 1.25544 16.1067 
2.17573 1.25673 16.0994 
2.21367 1.26132 16.114 
2.19472 1.26261 16.1067 
2.17573 1.26391 16.0994 
2.15671 1.26521 16.092 
2.21367 1.26849 16.114 
2.19472 1.26979 16.1067 
2.17573 1.27109 16.0994 
2.15671 1.2724 16.092 
2.21367 1.27565 16.114 
2.19472 1.27696 16.1067 
2.17573 1.27827 16.0994 
2.15671 1.27958 16.092 
2.21367 1.28282 16.114 
2.19472 1.28414 16.1067 
2.17573 1.28545 16.0994 
2.15671 1.28677 16.092 
2.21367 1.28999 16.114 
2.19472 1.29131 16.1067 
2.17573 1.29263 16.0994 
2.15671 1.29396 16.092 
2.13765 1.29529 16.0846 
2.19472 1.29848 16.1067 
2.17573 1.29982 16.0994 
2.15671 1.30115 16.092 
2.13765 1.30249 16.0846 
2.17573 1.307 16.0994 
2.15671 1.30834 16.092 
2.13765 1.30968 16.0846 
2.17573 1.31418 16.0994 
2.15671 1.31553 16.092 
2.13765 1.31688 16.0846 
2.11854 1.31824 16.0773 
2.17573 1.32136 16.0994 
2.15671 1.32272 16.092 
2.13765 1.32408 16.0846 
2.11854 1.32544 16.0773 
2.17573 1.32854 16.0994 
2.15671 1.3299 16.092 
2.13765 1.33127 16.0846 
2.11854 1.33264 16.0773 
2.17573 1.33572 16.0994 
2.15671 1.33709 16.092 
2.13765 1.33847 16.0846 
2.11854 1.33985 16.0773 
2.15671 1.34428 16.092 
2.13765 1.34566 16.0846 
2.11854 1.34705 16.0773 
2.15671 1.35147 16.092 
2.13765 1.35286 16.0846 
2.11854 1.35425 16.0773 
2.15671 1.35866 16.092 
2.13765 1.36006 16.0846 
2.11854 1.36146 16.0773 
2.15671 1.36585 16.092 
2.13765 1.36725 16.0846 
2.11854 1.36866 16.0773 
2.13765 1.37445 16.0846 
2.11854 1.37586 16.0773 
2.13765 1.38164 16.0846 
2.11854 1.38307 16.0773 
2.13765 1.38884 16.0846 
2.11854 1.39027 16.0773 
2.13765 1.39604 16.0846 
2.11854 1.39747 16.0773 
2.13765 1.40323 16.0846 
2.11854 1.40468 16.0773 
2.13765 1.41043 16.0846 
2.11854 1.41188 16.0773 
2.11854 1.41908 16.0773 
2.15671 1.42336 16.092 
2.11854 1.42629 16.0773 
2.15671 1.43055 16.092 
2.15671 1.43773 16.092 
2.13765 1.43921 16.0846 
2.15671 1.44492 16.092 
2.13765 1.44641 16.0846 
2.15671 1.45211 16.092 
2.13765 1.45361 16.0846 
2.17573 1.4578 16.0994 
2.15671 1.4593 16.092 
2.13765 1.4608 16.0846 
2.17573 1.46499 16.0994 
2.15671 1.46649 16.092 
2.13765 1.468 16.0846 
2.17573 1.47217 16.0994 
2.15671 1.47368 16.092 
2.13765 1.47519 16.0846 
2.17573 1.47935 16.0994 
2.15671 1.48087 16.092 
2.13765 1.48239 16.0846 
2.17573 1.48653 16.0994 
2.15671 1.48806 16.092 
2.13765 1.48959 16.0846 
2.17573 1.49371 16.0994 
2.15671 1.49524 16.092 
2.13765 1.49678 16.0846 
2.17573 1.50089 16.0994 
2.15671 1.50243 16.092 
2.13765 1.50398 16.0846 
2.17573 1.50807 16.0994 
2.15671 1.50962 16.092 
2.17573 1.51525 16.0994 
2.15671 1.51681 16.092 
2.17573 1.52244 16.0994 
2.15671 1.524 16.092 
2.17573 1.52962 16.0994 
2.15671 1.53119 16.092 
2.19472 1.53522 16.1067 
2.17573 1.5368 16.0994 
2.15671 1.53838 16.092 
2.19472 1.5424 16.1067 
2.17573 1.54398 16.0994 
2.19472 1.54957 16.1067 
2.17573 1.55116 16.0994 
2.15671 1.55275 16.092 
2.19472 1.55675 16.1067 
2.17573 1.55834 16.0994 
2.19472 1.56392 16.1067 
2.19472 1.57109 16.1067 
2.19472 1.57827 16.1067 
2.21367 1.58382 16.114 
2.19472 1.58544 16.1067 
2.21367 1.59098 16.114 
2.19472 1.59261 16.1067 
2.21367 1.59815 16.114 
2.19472 1.59979 16.1067 
2.19472 1.60696 16.1067 
2.23258 1.61799 16.1213 
2.21367 1.61965 16.114 
2.23258 1.62515 16.1213 
2.21367 1.62682 16.114 
2.23258 1.63231 16.1213 
2.21367 1.63398 16.114 
2.23258 1.63947 16.1213 
2.23258 1.64663 16.1213 
2.25145 1.6521 16.1286 
2.23258 1.65379 16.1213 
2.25145 1.65925 16.1286 
2.23258 1.66095 16.1213 
2.25145 1.6664 16.1286 
2.23258 1.66811 16.1213 
2.25145 1.67356 16.1286 
2.23258 1.67527 16.1213 
2.25145 1.68071 16.1286 
2.23258 1.68243 16.1213 
2.23258 1.68959 16.1213 
1.98371 2.03161 16.0252 
1.96429 2.03371 16.0177 
1.94482 2.03583 16.0102 
1.96429 2.04098 16.0177 
1.94482 2.0431 16.0102 
1.92532 2.04522 16.0026 
1.98371 2.04612 16.0252 
1.96429 2.04824 16.0177 
1.94482 2.05037 16.0102 
1.92532 2.0525 16.0026 
1.90578 2.05464 15.9951 
1.88619 2.05678 15.9875 
1.96429 2.0555 16.0177 
1.94482 2.05764 16.0102 
1.92532 2.05978 16.0026 
1.90578 2.06192 15.9951 
1.88619 2.06407 15.9875 
1.94482 2.06491 16.0102 
1.92532 2.06706 16.0026 
1.90578 2.06921 15.9951 
1.88619 2.07136 15.9875 
1.86657 2.07352 15.9799 
1.94482 2.07218 16.0102 
1.92532 2.07434 16.0026 
1.90578 2.07649 15.9951 
1.88619 2.07866 15.9875 
1.86657 2.08083 15.9799 
1.94482 2.07945 16.0102 
1.92532 2.08161 16.0026 
1.90578 2.08378 15.9951 
1.88619 2.08595 15.9875 
1.86657 2.08813 15.9799 
1.8469 2.09031 15.9723 
1.94482 2.08672 16.0102 
1.92532 2.08889 16.0026 
1.90578 2.09107 15.9951 
1.88619 2.09325 15.9875 
1.86657 2.09543 15.9799 
1.8469 2.09762 15.9723 
1.92532 2.09617 16.0026 
1.90578 2.09835 15.9951 
1.88619 2.10054 15.9875 
1.86657 2.10273 15.9799 
1.8469 2.10492 15.9723 
1.92532 2.10345 16.0026 
1.90578 2.10564 15.9951 
1.88619 2.10783 15.9875 
1.86657 2.11003 15.9799 
1.8469 2.11223 15.9723 
1.92532 2.11073 16.0026 
1.90578 2.11292 15.9951 
1.88619 2.11513 15.9875 
1.86657 2.11733 15.9799 
1.8469 2.11954 15.9723 
1.92532 2.11801 16.0026 
1.90578 2.12021 15.9951 
1.88619 2.12242 15.9875 
1.86657 2.12463 15.9799 
1.8469 2.12685 15.9723 
1.90578 2.1275 15.9951 
1.88619 2.12971 15.9875 
1.86657 2.13193 15.9799 
1.8469 2.13416 15.9723 
1.92532 2.13256 16.0026 
1.90578 2.13478 15.9951 
1.88619 2.13701 15.9875 
1.86657 2.13924 15.9799 
1.8469 2.14147 15.9723 
1.92532 2.13984 16.0026 
1.90578 2.14207 15.9951 
1.88619 2.1443 15.9875 
1.86657 2.14654 15.9799 
1.92532 2.14712 16.0026 
1.90578 2.14935 15.9951 
1.88619 2.15159 15.9875 
1.86657 2.15384 15.9799 
1.92532 2.1544 16.0026 
1.90578 2.15664 15.9951 
1.88619 2.15889 15.9875 
1.92532 2.16168 16.0026 
1.90578 2.16393 15.9951 
1.88619 2.16618 15.9875 
1.94482 2.1667 16.0102 
1.92532 2.16895 16.0026 
1.90578 2.17121 15.9951 
1.88619 2.17347 15.9875 
1.94482 2.17397 16.0102 
1.92532 2.17623 16.0026 
1.90578 2.1785 15.9951 
1.88619 2.18077 15.9875 
1.94482 2.18124 16.0102 
1.92532 2.18351 16.0026 
1.90578 2.18578 15.9951 
1.88619 2.18806 15.9875 
1.94482 2.18851 16.0102 
1.92532 2.19079 16.0026 
1.90578 2.19307 15.9951 
1.88619 2.19535 15.9875 
1.94482 2.19578 16.0102 
1.92532 2.19807 16.0026 
1.90578 2.20036 15.9951 
1.88619 2.20265 15.9875 
1.94482 2.20306 16.0102 
1.92532 2.20535 16.0026 
1.90578 2.20764 15.9951 
1.88619 2.20994 15.9875 
1.94482 2.21033 16.0102 
1.92532 2.21262 16.0026 
1.90578 2.21493 15.9951 
1.88619 2.21724 15.9875 
1.94482 2.2176 16.0102 
1.92532 2.2199 16.0026 
1.90578 2.22221 15.9951 
1.88619 2.22453 15.9875 
1.94482 2.22487 16.0102 
1.92532 2.22718 16.0026 
1.90578 2.2295 15.9951 
1.88619 2.23182 15.9875 
1.94482 2.23214 16.0102 
1.92532 2.23446 16.0026 
1.90578 2.23679 15.9951 
1.94482 2.23941 16.0102 
1.92532 2.24174 16.0026 
1.90578 2.24407 15.9951 
1.94482 2.24668 16.0102 
1.92532 2.24902 16.0026 
1.96429 2.25161 16.0177 
1.94482 2.25395 16.0102 
1.92532 2.25629 16.0026 
1.96429 2.25888 16.0177 
1.94482 2.26122 16.0102 
1.92532 2.26357 16.0026 
2.00309 2.26145 16.0327 
1.98371 2.26379 16.0252 
1.96429 2.26614 16.0177 
1.94482 2.26849 16.0102 
1.92532 2.27085 16.0026 
2.02243 2.26635 16.0401 
2.00309 2.26869 16.0327 
1.98371 2.27105 16.0252 
1.96429 2.2734 16.0177 
1.94482 2.27576 16.0102 
1.92532 2.27813 16.0026 
2.00309 2.27594 16.0327 
1.98371 2.2783 16.0252 
1.96429 2.28067 16.0177 
1.94482 2.28303 16.0102 
2.00309 2.28319 16.0327 
1.98371 2.28556 16.0252 
1.96429 2.28793 16.0177 
1.98371 2.29281 16.0252 
2.59651 1.0664 16.268 
2.59651 1.07341 16.268 
2.57818 1.08151 16.2615 
2.72378 1.07987 16.3135 
2.57818 1.08853 16.2615 
2.57818 1.09556 16.2615 
2.59651 1.10147 16.268 
2.59651 1.10849 16.268 
2.57818 1.1096 16.2615 
2.6148 1.11439 16.2746 
2.59651 1.11551 16.268 
2.57818 1.11662 16.2615 
2.6148 1.1214 16.2746 
2.59651 1.12252 16.268 
2.57818 1.12365 16.2615 
2.55981 1.12478 16.2549 
2.54141 1.12591 16.2483 
2.6148 1.12841 16.2746 
2.59651 1.12954 16.268 
2.57818 1.13067 16.2615 
2.55981 1.13181 16.2549 
2.54141 1.13294 16.2483 
2.6148 1.13541 16.2746 
2.59651 1.13655 16.268 
2.57818 1.13769 16.2615 
2.55981 1.13884 16.2549 
2.54141 1.13998 16.2483 
2.6148 1.14242 16.2746 
2.59651 1.14357 16.268 
2.57818 1.14472 16.2615 
2.55981 1.14587 16.2549 
2.54141 1.14702 16.2483 
2.29877 1.16221 16.1615 
2.24186 1.16577 16.1412 
2.57818 1.15174 16.2615 
2.55981 1.1529 16.2549 
2.35533 1.16577 16.1818 
2.29877 1.16934 16.1615 
2.27984 1.17053 16.1548 
2.24186 1.17292 16.1412 
2.22282 1.17412 16.1344 
2.55981 1.15993 16.2549 
2.39285 1.1705 16.1952 
2.27984 1.17767 16.1548 
2.24186 1.18007 16.1412 
2.22282 1.18128 16.1344 
2.20373 1.18249 16.1275 
2.57818 1.16578 16.2615 
2.55981 1.16695 16.2549 
2.27984 1.1848 16.1548 
2.24186 1.18722 16.1412 
2.22282 1.18844 16.1344 
2.20373 1.18965 16.1275 
2.1846 1.19087 16.1207 
2.57818 1.17281 16.2615 
2.24186 1.19438 16.1412 
2.22282 1.1956 16.1344 
2.20373 1.19682 16.1275 
2.1846 1.19805 16.1207 
2.16544 1.19928 16.1138 
2.57818 1.17983 16.2615 
2.55981 1.18101 16.2549 
2.24186 1.20153 16.1412 
2.22282 1.20276 16.1344 
2.20373 1.20399 16.1275 
2.1846 1.20522 16.1207 
2.16544 1.20646 16.1138 
2.14624 1.2077 16.107 
2.57818 1.18685 16.2615 
2.55981 1.18804 16.2549 
2.24186 1.20868 16.1412 
2.22282 1.20992 16.1344 
2.20373 1.21115 16.1275 
2.1846 1.2124 16.1207 
2.16544 1.21364 16.1138 
2.14624 1.21489 16.107 
2.57818 1.19388 16.2615 
2.1846 1.21957 16.1207 
2.16544 1.22082 16.1138 
2.14624 1.22207 16.107 
2.57818 1.2009 16.2615 
2.1846 1.22674 16.1207 
2.16544 1.228 16.1138 
2.14624 1.22926 16.107 
2.12699 1.23053 16.1001 
2.1846 1.23392 16.1207 
2.16544 1.23518 16.1138 
2.14624 1.23645 16.107 
2.12699 1.23772 16.1001 
2.16544 1.24236 16.1138 
2.14624 1.24364 16.107 
2.12699 1.24492 16.1001 
2.10771 1.2462 16.0932 
2.16544 1.24955 16.1138 
2.14624 1.25083 16.107 
2.12699 1.25212 16.1001 
2.10771 1.2534 16.0932 
2.16544 1.25673 16.1138 
2.14624 1.25802 16.107 
2.12699 1.25931 16.1001 
2.10771 1.26061 16.0932 
2.14624 1.26521 16.107 
2.12699 1.26651 16.1001 
2.10771 1.26781 16.0932 
2.14624 1.2724 16.107 
2.12699 1.2737 16.1001 
2.10771 1.27501 16.0932 
2.14624 1.27958 16.107 
2.12699 1.2809 16.1001 
2.10771 1.28222 16.0932 
2.12699 1.2881 16.1001 
2.10771 1.28942 16.0932 
2.12699 1.29529 16.1001 
2.10771 1.29662 16.0932 
2.08839 1.29796 16.0863 
2.12699 1.30249 16.1001 
2.10771 1.30383 16.0932 
2.08839 1.30517 16.0863 
2.12699 1.30968 16.1001 
2.10771 1.31103 16.0932 
2.08839 1.31238 16.0863 
2.12699 1.31688 16.1001 
2.10771 1.31824 16.0932 
2.08839 1.31959 16.0863 
2.06902 1.32095 16.0794 
2.12699 1.32408 16.1001 
2.10771 1.32544 16.0932 
2.08839 1.3268 16.0863 
2.06902 1.32817 16.0794 
2.12699 1.33127 16.1001 
2.10771 1.33264 16.0932 
2.08839 1.33401 16.0863 
2.06902 1.33539 16.0794 
2.12699 1.33847 16.1001 
2.10771 1.33985 16.0932 
2.08839 1.34123 16.0863 
2.06902 1.34261 16.0794 
2.10771 1.34705 16.0932 
2.08839 1.34844 16.0863 
2.06902 1.34983 16.0794 
2.10771 1.35425 16.0932 
2.08839 1.35565 16.0863 
2.06902 1.35705 16.0794 
2.10771 1.36146 16.0932 
2.08839 1.36286 16.0863 
2.10771 1.36866 16.0932 
2.08839 1.37007 16.0863 
2.10771 1.37586 16.0932 
2.08839 1.37728 16.0863 
2.08839 1.38449 16.0863 
2.08839 1.3917 16.0863 
2.08839 1.39891 16.0863 
2.08839 1.40612 16.0863 
2.08839 1.41333 16.0863 
2.10771 1.41908 16.0932 
2.08839 1.42055 16.0863 
2.10771 1.42629 16.0932 
2.08839 1.42776 16.0863 
2.10771 1.43349 16.0932 
2.08839 1.43497 16.0863 
2.10771 1.44069 16.0932 
2.08839 1.44218 16.0863 
2.10771 1.4479 16.0932 
2.08839 1.44939 16.0863 
2.10771 1.4551 16.0932 
2.12699 1.4608 16.1001 
2.10771 1.4623 16.0932 
2.12699 1.468 16.1001 
2.12699 1.47519 16.1001 
2.10771 1.47671 16.0932 
2.12699 1.48239 16.1001 
2.10771 1.48391 16.0932 
2.12699 1.48959 16.1001 
2.10771 1.49112 16.0932 
2.12699 1.49678 16.1001 
2.10771 1.49832 16.0932 
2.12699 1.50398 16.1001 
2.10771 1.50553 16.0932 
2.14624 1.50962 16.107 
2.12699 1.51117 16.1001 
2.10771 1.51273 16.0932 
2.14624 1.51681 16.107 
2.12699 1.51837 16.1001 
2.10771 1.51993 16.0932 
2.14624 1.524 16.107 
2.12699 1.52557 16.1001 
2.16544 1.52962 16.1138 
2.14624 1.53119 16.107 
2.12699 1.53276 16.1001 
2.16544 1.5368 16.1138 
2.14624 1.53838 16.107 
2.12699 1.53996 16.1001 
2.16544 1.54398 16.1138 
2.14624 1.54557 16.107 
2.16544 1.55116 16.1138 
2.14624 1.55275 16.107 
2.16544 1.55834 16.1138 
2.14624 1.55994 16.107 
2.16544 1.56552 16.1138 
2.14624 1.56713 16.107 
2.16544 1.5727 16.1138 
2.14624 1.57432 16.107 
2.16544 1.57989 16.1138 
2.16544 1.58707 16.1138 
2.1846 1.59261 16.1207 
2.16544 1.59425 16.1138 
2.1846 1.59979 16.1207 
2.16544 1.60143 16.1138 
2.1846 1.60696 16.1207 
2.1846 1.61414 16.1207 
2.1846 1.62131 16.1207 
2.1846 1.62848 16.1207 
2.20373 1.63398 16.1275 
2.20373 1.64115 16.1275 
2.22282 1.64663 16.1344 
2.20373 1.64832 16.1275 
2.22282 1.65379 16.1344 
2.20373 1.65548 16.1275 
2.22282 1.66095 16.1344 
2.20373 1.66265 16.1275 
2.22282 1.66811 16.1344 
2.20373 1.66982 16.1275 
2.22282 1.67527 16.1344 
2.22282 1.68243 16.1344 
2.22282 1.68959 16.1344 
2.22282 1.69675 16.1344 
2.22282 1.70391 16.1344 
2.22282 1.71106 16.1344 
2.22282 1.71822 16.1344 
2.22282 1.72538 16.1344 
1.97161 2.02435 16.0445 
1.95201 2.02645 16.0375 
1.97161 2.03161 16.0445 
1.95201 2.03371 16.0375 
1.93236 2.03583 16.0305 
1.91267 2.03794 16.0234 
1.95201 2.04098 16.0375 
1.93236 2.0431 16.0305 
1.91267 2.04522 16.0234 
1.89295 2.04735 16.0164 
1.93236 2.05037 16.0305 
1.91267 2.0525 16.0234 
1.89295 2.05464 16.0164 
1.87318 2.05678 16.0093 
1.91267 2.05978 16.0234 
1.89295 2.06192 16.0164 
1.87318 2.06407 16.0093 
1.85337 2.06622 16.0022 
1.91267 2.06706 16.0234 
1.89295 2.06921 16.0164 
1.87318 2.07136 16.0093 
1.85337 2.07352 16.0022 
1.83352 2.07569 15.9951 
1.89295 2.07649 16.0164 
1.87318 2.07866 16.0093 
1.85337 2.08083 16.0022 
1.83352 2.083 15.9951 
1.81363 2.08518 15.988 
1.89295 2.08378 16.0164 
1.87318 2.08595 16.0093 
1.85337 2.08813 16.0022 
1.83352 2.09031 15.9951 
1.81363 2.09249 15.988 
1.79369 2.09468 15.9809 
1.89295 2.09107 16.0164 
1.87318 2.09325 16.0093 
1.85337 2.09543 16.0022 
1.83352 2.09762 15.9951 
1.81363 2.09981 15.988 
1.79369 2.10201 15.9809 
1.85337 2.10273 16.0022 
1.83352 2.10492 15.9951 
1.81363 2.10713 15.988 
1.79369 2.10933 15.9809 
1.85337 2.11003 16.0022 
1.83352 2.11223 15.9951 
1.81363 2.11444 15.988 
1.79369 2.11665 15.9809 
1.85337 2.11733 16.0022 
1.83352 2.11954 15.9951 
1.81363 2.12176 15.988 
1.79369 2.12398 15.9809 
1.85337 2.12463 16.0022 
1.83352 2.12685 15.9951 
1.81363 2.12907 15.988 
1.79369 2.1313 15.9809 
1.85337 2.13193 16.0022 
1.83352 2.13416 15.9951 
1.81363 2.13639 15.988 
1.79369 2.13863 15.9809 
1.85337 2.13924 16.0022 
1.83352 2.14147 15.9951 
1.81363 2.14371 15.988 
1.79369 2.14595 15.9809 
1.85337 2.14654 16.0022 
1.83352 2.14878 15.9951 
1.81363 2.15102 15.988 
1.79369 2.15327 15.9809 
1.85337 2.15384 16.0022 
1.83352 2.15609 15.9951 
1.81363 2.15834 15.988 
1.79369 2.1606 15.9809 
1.85337 2.16114 16.0022 
1.83352 2.16339 15.9951 
1.81363 2.16566 15.988 
1.79369 2.16792 15.9809 
1.85337 2.16844 16.0022 
1.83352 2.1707 15.9951 
1.81363 2.17297 15.988 
1.79369 2.17525 15.9809 
1.87318 2.17347 16.0093 
1.85337 2.17574 16.0022 
1.83352 2.17801 15.9951 
1.81363 2.18029 15.988 
1.79369 2.18257 15.9809 
1.87318 2.18077 16.0093 
1.85337 2.18304 16.0022 
1.83352 2.18532 15.9951 
1.81363 2.18761 15.988 
1.79369 2.18989 15.9809 
1.87318 2.18806 16.0093 
1.85337 2.19034 16.0022 
1.83352 2.19263 15.9951 
1.81363 2.19492 15.988 
1.79369 2.19722 15.9809 
1.87318 2.19535 16.0093 
1.85337 2.19764 16.0022 
1.83352 2.19994 15.9951 
1.81363 2.20224 15.988 
1.87318 2.20265 16.0093 
1.85337 2.20495 16.0022 
1.83352 2.20725 15.9951 
1.81363 2.20955 15.988 
1.87318 2.20994 16.0093 
1.85337 2.21225 16.0022 
1.83352 2.21456 15.9951 
1.81363 2.21687 15.988 
1.89295 2.21493 16.0164 
1.87318 2.21724 16.0093 
1.85337 2.21955 16.0022 
1.83352 2.22187 15.9951 
1.81363 2.22419 15.988 
1.89295 2.22221 16.0164 
1.87318 2.22453 16.0093 
1.85337 2.22685 16.0022 
1.83352 2.22917 15.9951 
1.89295 2.2295 16.0164 
1.87318 2.23182 16.0093 
1.85337 2.23415 16.0022 
1.83352 2.23648 15.9951 
1.89295 2.23679 16.0164 
1.87318 2.23912 16.0093 
1.85337 2.24145 16.0022 
1.83352 2.24379 15.9951 
1.89295 2.24407 16.0164 
1.87318 2.24641 16.0093 
1.85337 2.24875 16.0022 
1.83352 2.2511 15.9951 
1.89295 2.25136 16.0164 
1.87318 2.2537 16.0093 
1.85337 2.25605 16.0022 
1.89295 2.25864 16.0164 
1.87318 2.261 16.0093 
1.85337 2.26335 16.0022 
1.89295 2.26593 16.0164 
1.87318 2.26829 16.0093 
1.85337 2.27066 16.0022 
1.91267 2.27085 16.0234 
1.89295 2.27321 16.0164 
1.87318 2.27558 16.0093 
1.85337 2.27796 16.0022 
1.91267 2.27813 16.0234 
1.89295 2.2805 16.0164 
1.87318 2.28288 16.0093 
1.85337 2.28526 16.0022 
1.93236 2.28303 16.0305 
1.91267 2.28541 16.0234 
1.89295 2.28779 16.0164 
1.87318 2.29017 16.0093 
1.93236 2.2903 16.0305 
1.91267 2.29269 16.0234 
1.93236 2.29758 16.0305 
2.57183 1.0464 16.2658 
2.57183 1.05342 16.2658 
2.55331 1.05448 16.2597 
2.6822 1.0541 16.3022 
2.59032 1.05938 16.2719 
2.55331 1.06151 16.2597 
2.57183 1.06747 16.2658 
2.55331 1.06854 16.2597 
2.55331 1.07557 16.2597 
2.51614 1.08478 16.2474 
2.49751 1.08587 16.2413 
2.51614 1.09182 16.2474 
2.49751 1.09292 16.2413 
2.49751 1.09997 16.2413 
2.47883 1.10108 16.2351 
2.55331 1.10369 16.2597 
2.53474 1.1048 16.2536 
2.47883 1.10814 16.2351 
2.57183 1.1096 16.2658 
2.55331 1.11072 16.2597 
2.53474 1.11183 16.2536 
2.49751 1.11407 16.2413 
2.57183 1.11662 16.2658 
2.51614 1.12 16.2474 
2.49751 1.12112 16.2413 
2.29 1.13369 16.1729 
2.27091 1.13484 16.1666 
2.51614 1.12704 16.2474 
2.49751 1.12817 16.2413 
2.29 1.14082 16.1729 
2.27091 1.14198 16.1666 
2.2326 1.14431 16.154 
2.21339 1.14548 16.1477 
2.51614 1.13408 16.2474 
2.49751 1.13523 16.2413 
2.29 1.14795 16.1729 
2.27091 1.14912 16.1666 
2.2326 1.15146 16.154 
2.21339 1.15264 16.1477 
2.19414 1.15382 16.1413 
2.17484 1.155 16.1349 
2.51614 1.14113 16.2474 
2.49751 1.14228 16.2413 
2.2326 1.15862 16.154 
2.21339 1.1598 16.1477 
2.19414 1.16099 16.1413 
2.17484 1.16218 16.1349 
2.15551 1.16337 16.1286 
2.51614 1.14817 16.2474 
2.21339 1.16696 16.1477 
2.19414 1.16816 16.1413 
2.17484 1.16935 16.1349 
2.15551 1.17055 16.1286 
2.53474 1.15405 16.2536 
2.51614 1.15522 16.2474 
2.17484 1.17653 16.1349 
2.15551 1.17773 16.1286 
2.13614 1.17894 16.1222 
2.53474 1.16109 16.2536 
2.51614 1.16226 16.2474 
2.17484 1.1837 16.1349 
2.15551 1.18491 16.1286 
2.13614 1.18613 16.1222 
2.11673 1.18735 16.1158 
2.53474 1.16813 16.2536 
2.51614 1.1693 16.2474 
2.15551 1.1921 16.1286 
2.13614 1.19332 16.1222 
2.11673 1.19455 16.1158 
2.15551 1.19928 16.1286 
2.13614 1.20051 16.1222 
2.11673 1.20174 16.1158 
2.13614 1.2077 16.1222 
2.11673 1.20894 16.1158 
2.09728 1.21018 16.1094 
2.11673 1.21613 16.1158 
2.09728 1.21739 16.1094 
2.11673 1.22333 16.1158 
2.09728 1.22459 16.1094 
2.11673 1.23053 16.1158 
2.09728 1.23179 16.1094 
2.07779 1.23306 16.103 
2.11673 1.23772 16.1158 
2.09728 1.239 16.1094 
2.07779 1.24027 16.103 
2.11673 1.24492 16.1158 
2.09728 1.2462 16.1094 
2.07779 1.24748 16.103 
2.05826 1.24877 16.0965 
2.09728 1.2534 16.1094 
2.07779 1.25469 16.103 
2.05826 1.25599 16.0965 
2.09728 1.26061 16.1094 
2.07779 1.26191 16.103 
2.05826 1.26321 16.0965 
2.09728 1.26781 16.1094 
2.07779 1.26912 16.103 
2.05826 1.27043 16.0965 
2.09728 1.27501 16.1094 
2.07779 1.27633 16.103 
2.05826 1.27764 16.0965 
2.09728 1.28222 16.1094 
2.07779 1.28354 16.103 
2.05826 1.28486 16.0965 
2.03869 1.28619 16.0901 
2.09728 1.28942 16.1094 
2.07779 1.29075 16.103 
2.05826 1.29208 16.0965 
2.03869 1.29341 16.0901 
2.09728 1.29662 16.1094 
2.07779 1.29796 16.103 
2.05826 1.2993 16.0965 
2.03869 1.30064 16.0901 
2.09728 1.30383 16.1094 
2.07779 1.30517 16.103 
2.05826 1.30652 16.0965 
2.07779 1.31238 16.103 
2.05826 1.31374 16.0965 
2.07779 1.31959 16.103 
2.05826 1.32095 16.0965 
2.03869 1.32232 16.0901 
2.07779 1.3268 16.103 
2.05826 1.32817 16.0965 
2.03869 1.32954 16.0901 
2.07779 1.33401 16.103 
2.05826 1.33539 16.0965 
2.03869 1.33677 16.0901 
2.05826 1.34261 16.0965 
2.05826 1.34983 16.0965 
2.05826 1.35705 16.0965 
2.05826 1.36426 16.0965 
2.05826 1.37148 16.0965 
2.05826 1.3787 16.0965 
2.05826 1.38592 16.0965 
2.03869 1.38735 16.0901 
2.05826 1.39314 16.0965 
2.03869 1.39457 16.0901 
2.05826 1.40036 16.0965 
2.03869 1.4018 16.0901 
2.05826 1.40757 16.0965 
2.03869 1.40903 16.0901 
2.05826 1.41479 16.0965 
2.03869 1.41625 16.0901 
2.05826 1.42201 16.0965 
2.03869 1.42348 16.0901 
2.05826 1.42923 16.0965 
2.03869 1.4307 16.0901 
2.05826 1.43645 16.0965 
2.03869 1.43793 16.0901 
2.07779 1.44218 16.103 
2.05826 1.44367 16.0965 
2.03869 1.44516 16.0901 
2.07779 1.44939 16.103 
2.05826 1.45088 16.0965 
2.03869 1.45238 16.0901 
2.07779 1.4566 16.103 
2.05826 1.4581 16.0965 
2.07779 1.46381 16.103 
2.05826 1.46532 16.0965 
2.07779 1.47102 16.103 
2.05826 1.47254 16.0965 
2.09728 1.47671 16.1094 
2.07779 1.47823 16.103 
2.05826 1.47976 16.0965 
2.09728 1.48391 16.1094 
2.07779 1.48544 16.103 
2.09728 1.49112 16.1094 
2.07779 1.49265 16.103 
2.11673 1.49678 16.1158 
2.09728 1.49832 16.1094 
2.07779 1.49987 16.103 
2.11673 1.50398 16.1158 
2.09728 1.50553 16.1094 
2.07779 1.50708 16.103 
2.11673 1.51117 16.1158 
2.09728 1.51273 16.1094 
2.07779 1.51429 16.103 
2.11673 1.51837 16.1158 
2.09728 1.51993 16.1094 
2.07779 1.5215 16.103 
2.11673 1.52557 16.1158 
2.09728 1.52714 16.1094 
2.11673 1.53276 16.1158 
2.09728 1.53434 16.1094 
2.11673 1.53996 16.1158 
2.09728 1.54154 16.1094 
2.11673 1.54715 16.1158 
2.09728 1.54875 16.1094 
2.13614 1.55275 16.1222 
2.11673 1.55435 16.1158 
2.09728 1.55595 16.1094 
2.13614 1.55994 16.1222 
2.11673 1.56155 16.1158 
2.13614 1.56713 16.1222 
2.11673 1.56874 16.1158 
2.13614 1.57432 16.1222 
2.11673 1.57594 16.1158 
2.13614 1.58151 16.1222 
2.11673 1.58313 16.1158 
2.13614 1.5887 16.1222 
2.11673 1.59033 16.1158 
2.13614 1.59589 16.1222 
2.15551 1.60143 16.1286 
2.13614 1.61026 16.1222 
2.17484 1.62848 16.1349 
2.17484 1.63566 16.1349 
2.19414 1.64115 16.1413 
2.17484 1.64283 16.1349 
2.19414 1.64832 16.1413 
2.17484 1.65001 16.1349 
2.19414 1.65548 16.1413 
2.17484 1.65718 16.1349 
2.17484 1.66435 16.1349 
2.17484 1.67153 16.1349 
2.17484 1.6787 16.1349 
2.21339 1.68243 16.1477 
2.19414 1.68415 16.1413 
2.17484 1.68588 16.1349 
2.21339 1.68959 16.1477 
2.19414 1.69132 16.1413 
2.17484 1.69305 16.1349 
2.21339 1.69675 16.1477 
2.19414 1.69848 16.1413 
2.21339 1.70391 16.1477 
2.19414 1.70565 16.1413 
2.21339 1.71106 16.1477 
2.19414 1.71282 16.1413 
2.21339 1.71822 16.1477 
2.21339 1.72538 16.1477 
2.19414 1.72715 16.1413 
2.21339 1.73254 16.1477 
2.19414 1.73432 16.1413 
2.21339 1.7397 16.1477 
2.19414 1.74148 16.1413 
2.21339 1.74686 16.1477 
2.21339 1.75402 16.1477 
2.21339 1.83277 16.1477 
2.21339 1.83993 16.1477 
2.2326 1.89527 16.154 
2.2326 1.90242 16.154 
2.2326 1.90957 16.154 
2.2326 1.91672 16.154 
1.90056 2.03794 16.0446 
1.90056 2.04522 16.0446 
1.88066 2.04735 16.038 
1.88066 2.05464 16.038 
1.86072 2.05678 16.0314 
1.84074 2.05892 16.0248 
1.82071 2.06107 16.0182 
1.86072 2.06407 16.0314 
1.84074 2.06622 16.0248 
1.82071 2.06838 16.0182 
1.80065 2.07054 16.0116 
1.78054 2.07271 16.005 
1.84074 2.07352 16.0248 
1.82071 2.07569 16.0182 
1.80065 2.07786 16.0116 
1.78054 2.08003 16.005 
1.76039 2.08221 15.9984 
1.84074 2.08083 16.0248 
1.82071 2.083 16.0182 
1.80065 2.08518 16.0116 
1.78054 2.08736 16.005 
1.76039 2.08954 15.9984 
1.84074 2.08813 16.0248 
1.82071 2.09031 16.0182 
1.80065 2.09249 16.0116 
1.78054 2.09468 16.005 
1.76039 2.09688 15.9984 
1.7402 2.09907 15.9917 
1.84074 2.09543 16.0248 
1.82071 2.09762 16.0182 
1.80065 2.09981 16.0116 
1.78054 2.10201 16.005 
1.76039 2.10421 15.9984 
1.7402 2.10641 15.9917 
1.84074 2.10273 16.0248 
1.82071 2.10492 16.0182 
1.80065 2.10713 16.0116 
1.78054 2.10933 16.005 
1.76039 2.11154 15.9984 
1.7402 2.11375 15.9917 
1.84074 2.11003 16.0248 
1.82071 2.11223 16.0182 
1.80065 2.11444 16.0116 
1.78054 2.11665 16.005 
1.76039 2.11887 15.9984 
1.7402 2.12109 15.9917 
1.82071 2.11954 16.0182 
1.80065 2.12176 16.0116 
1.78054 2.12398 16.005 
1.76039 2.1262 15.9984 
1.7402 2.12843 15.9917 
1.82071 2.12685 16.0182 
1.80065 2.12907 16.0116 
1.78054 2.1313 16.005 
1.76039 2.13353 15.9984 
1.7402 2.13577 15.9917 
1.82071 2.13416 16.0182 
1.80065 2.13639 16.0116 
1.78054 2.13863 16.005 
1.76039 2.14087 15.9984 
1.7402 2.14311 15.9917 
1.82071 2.14147 16.0182 
1.80065 2.14371 16.0116 
1.78054 2.14595 16.005 
1.76039 2.1482 15.9984 
1.7402 2.15045 15.9917 
1.82071 2.14878 16.0182 
1.80065 2.15102 16.0116 
1.78054 2.15327 16.005 
1.76039 2.15553 15.9984 
1.7402 2.15779 15.9917 
1.82071 2.15609 16.0182 
1.80065 2.15834 16.0116 
1.78054 2.1606 16.005 
1.76039 2.16286 15.9984 
1.7402 2.16513 15.9917 
1.80065 2.16566 16.0116 
1.78054 2.16792 16.005 
1.76039 2.17019 15.9984 
1.7402 2.17247 15.9917 
1.80065 2.17297 16.0116 
1.78054 2.17525 16.005 
1.76039 2.17752 15.9984 
1.7402 2.17981 15.9917 
1.80065 2.18029 16.0116 
1.78054 2.18257 16.005 
1.76039 2.18486 15.9984 
1.7402 2.18715 15.9917 
1.80065 2.18761 16.0116 
1.78054 2.18989 16.005 
1.76039 2.19219 15.9984 
1.7402 2.19449 15.9917 
1.80065 2.19492 16.0116 
1.78054 2.19722 16.005 
1.76039 2.19952 15.9984 
1.7402 2.20183 15.9917 
1.80065 2.20224 16.0116 
1.78054 2.20454 16.005 
1.76039 2.20685 15.9984 
1.7402 2.20917 15.9917 
1.80065 2.20955 16.0116 
1.78054 2.21187 16.005 
1.76039 2.21418 15.9984 
1.7402 2.2165 15.9917 
1.80065 2.21687 16.0116 
1.78054 2.21919 16.005 
1.76039 2.22151 15.9984 
1.7402 2.22384 15.9917 
1.80065 2.22419 16.0116 
1.78054 2.22651 16.005 
1.76039 2.22885 15.9984 
1.7402 2.23118 15.9917 
1.80065 2.2315 16.0116 
1.78054 2.23384 16.005 
1.76039 2.23618 15.9984 
1.80065 2.23882 16.0116 
1.78054 2.24116 16.005 
1.80065 2.24614 16.0116 
1.78054 2.24849 16.005 
1.80065 2.25345 16.0116 
1.78054 2.25581 16.005 
1.80065 2.26077 16.0116 
1.78054 2.26313 16.005 
1.82071 2.26572 16.0182 
1.80065 2.26809 16.0116 
1.78054 2.27046 16.005 
1.82071 2.27303 16.0182 
1.80065 2.2754 16.0116 
1.84074 2.27796 16.0248 
1.82071 2.28034 16.0182 
1.80065 2.28272 16.0116 
1.84074 2.28526 16.0248 
1.82071 2.28764 16.0182 
1.80065 2.29004 16.0116 
1.86072 2.29017 16.0314 
1.84074 2.29256 16.0248 
1.82071 2.29495 16.0182 
1.86072 2.29746 16.0314 
1.84074 2.29986 16.0248 
1.70695 0.705324 16.011 
1.68651 0.706065 16.0049 
1.70695 0.712671 16.011 
1.68651 0.71342 16.0049 
1.70695 0.720018 16.011 
1.68651 0.720775 16.0049 
1.66603 0.721533 15.9987 
1.70695 0.727365 16.011 
1.68651 0.728129 16.0049 
1.66603 0.728895 15.9987 
1.68651 0.735484 16.0049 
1.66603 0.736258 15.9987 
1.68651 0.742839 16.0049 
1.66603 0.74362 15.9987 
1.68651 0.786968 16.0049 
1.68651 0.794323 16.0049 
1.68651 0.801678 16.0049 
1.70695 0.815531 16.011 
1.70695 0.822878 16.011 
1.72734 0.829354 16.0172 
1.70695 0.830225 16.011 
2.50946 1.02842 16.2533 
2.52821 1.04146 16.259 
2.50946 1.04251 16.2533 
2.52821 1.0485 16.259 
2.50946 1.04956 16.2533 
2.49068 1.05061 16.2476 
2.52821 1.05554 16.259 
2.50946 1.0566 16.2533 
2.49068 1.05766 16.2476 
2.52821 1.06257 16.259 
2.50946 1.06364 16.2533 
2.453 1.06686 16.2363 
2.52821 1.06961 16.259 
2.50946 1.07069 16.2533 
2.4341 1.07501 16.2306 
2.453 1.08099 16.2363 
2.4341 1.08209 16.2306 
2.453 1.08806 16.2363 
2.453 1.09513 16.2363 
2.453 1.10219 16.2363 
2.453 1.10926 16.2363 
2.26227 1.12057 16.1787 
2.24299 1.12171 16.1729 
2.18489 1.12516 16.1553 
2.26227 1.1277 16.1787 
2.24299 1.12885 16.1729 
2.20429 1.13116 16.1612 
2.18489 1.13232 16.1553 
2.16544 1.13348 16.1494 
2.12644 1.13581 16.1377 
2.47186 1.12225 16.242 
2.26227 1.13484 16.1787 
2.18489 1.13949 16.1553 
2.16544 1.14066 16.1494 
2.14596 1.14183 16.1436 
2.12644 1.143 16.1377 
2.47186 1.12931 16.242 
2.18489 1.14666 16.1553 
2.16544 1.14783 16.1494 
2.14596 1.14901 16.1436 
2.12644 1.15019 16.1377 
2.10687 1.15137 16.1318 
2.47186 1.13637 16.242 
2.18489 1.15382 16.1553 
2.16544 1.155 16.1494 
2.14596 1.15619 16.1436 
2.12644 1.15738 16.1377 
2.10687 1.15857 16.1318 
2.08727 1.15976 16.1258 
2.49068 1.14228 16.2476 
2.47186 1.14343 16.242 
2.14596 1.16337 16.1436 
2.12644 1.16457 16.1377 
2.10687 1.16576 16.1318 
2.08727 1.16696 16.1258 
2.49068 1.14933 16.2476 
2.47186 1.15049 16.242 
2.12644 1.17175 16.1377 
2.10687 1.17296 16.1318 
2.08727 1.17417 16.1258 
2.06762 1.17538 16.1199 
2.49068 1.15638 16.2476 
2.12644 1.17894 16.1377 
2.10687 1.18015 16.1318 
2.08727 1.18137 16.1258 
2.06762 1.18259 16.1199 
2.04793 1.18381 16.114 
2.12644 1.18613 16.1377 
2.10687 1.18735 16.1318 
2.08727 1.18857 16.1258 
2.06762 1.1898 16.1199 
2.04793 1.19102 16.114 
2.10687 1.19455 16.1318 
2.08727 1.19578 16.1258 
2.06762 1.19701 16.1199 
2.04793 1.19824 16.114 
2.10687 1.20174 16.1318 
2.08727 1.20298 16.1258 
2.06762 1.20422 16.1199 
2.04793 1.20546 16.114 
2.02821 1.2067 16.108 
2.10687 1.20894 16.1318 
2.08727 1.21018 16.1258 
2.06762 1.21143 16.1199 
2.04793 1.21268 16.114 
2.08727 1.21739 16.1258 
2.06762 1.21864 16.1199 
2.04793 1.2199 16.114 
2.04793 1.22712 16.114 
2.02821 1.22838 16.108 
2.00844 1.22965 16.102 
2.04793 1.23433 16.114 
2.02821 1.23561 16.108 
2.00844 1.23688 16.102 
2.04793 1.24155 16.114 
2.02821 1.24283 16.108 
2.00844 1.24412 16.102 
2.04793 1.24877 16.114 
2.02821 1.25006 16.108 
2.00844 1.25135 16.102 
2.02821 1.25729 16.108 
2.00844 1.25858 16.102 
2.02821 1.26451 16.108 
2.00844 1.26582 16.102 
2.02821 1.27174 16.108 
2.00844 1.27305 16.102 
2.02821 1.27896 16.108 
2.00844 1.28028 16.102 
1.98863 1.28161 16.0961 
2.02821 1.28619 16.108 
2.00844 1.28752 16.102 
1.98863 1.28885 16.0961 
2.02821 1.29341 16.108 
2.00844 1.29475 16.102 
1.98863 1.29609 16.0961 
2.02821 1.30064 16.108 
2.00844 1.30198 16.102 
1.98863 1.30333 16.0961 
2.02821 1.30787 16.108 
2.00844 1.30922 16.102 
1.98863 1.31057 16.0961 
2.02821 1.31509 16.108 
2.00844 1.31645 16.102 
2.02821 1.32232 16.108 
2.00844 1.32368 16.102 
1.96878 1.32642 16.0901 
2.02821 1.32954 16.108 
2.00844 1.33092 16.102 
1.98863 1.33229 16.0961 
2.02821 1.33677 16.108 
2.00844 1.33815 16.102 
1.98863 1.33953 16.0961 
2.02821 1.34399 16.108 
2.00844 1.34538 16.102 
1.98863 1.34678 16.0961 
2.02821 1.35122 16.108 
2.00844 1.35262 16.102 
2.02821 1.35845 16.108 
2.00844 1.35985 16.102 
2.02821 1.36567 16.108 
2.00844 1.36708 16.102 
1.98863 1.3685 16.0961 
2.02821 1.3729 16.108 
2.00844 1.37432 16.102 
1.98863 1.37574 16.0961 
2.02821 1.38012 16.108 
2.00844 1.38155 16.102 
1.98863 1.38298 16.0961 
2.02821 1.38735 16.108 
2.00844 1.38878 16.102 
1.98863 1.39022 16.0961 
2.02821 1.39457 16.108 
2.00844 1.39602 16.102 
2.02821 1.4018 16.108 
2.00844 1.40325 16.102 
2.02821 1.40903 16.108 
2.00844 1.41048 16.102 
2.02821 1.41625 16.108 
2.00844 1.41772 16.102 
2.02821 1.42348 16.108 
2.00844 1.42495 16.102 
2.02821 1.4307 16.108 
2.00844 1.43218 16.102 
2.02821 1.43793 16.108 
2.00844 1.43942 16.102 
2.02821 1.44516 16.108 
2.00844 1.44665 16.102 
2.02821 1.45238 16.108 
2.00844 1.45388 16.102 
2.02821 1.45961 16.108 
2.00844 1.46112 16.102 
2.02821 1.46683 16.108 
2.00844 1.46835 16.102 
2.02821 1.47406 16.108 
2.00844 1.47558 16.102 
2.04793 1.47976 16.114 
2.02821 1.48128 16.108 
2.00844 1.48282 16.102 
2.04793 1.48698 16.114 
2.02821 1.48851 16.108 
2.04793 1.49419 16.114 
2.04793 1.50141 16.114 
2.06762 1.50708 16.1199 
2.04793 1.50863 16.114 
2.08727 1.51273 16.1258 
2.06762 1.51429 16.1199 
2.04793 1.51585 16.114 
2.08727 1.51993 16.1258 
2.06762 1.5215 16.1199 
2.04793 1.52307 16.114 
2.08727 1.52714 16.1258 
2.06762 1.52871 16.1199 
2.08727 1.53434 16.1258 
2.06762 1.53592 16.1199 
2.08727 1.54154 16.1258 
2.06762 1.54313 16.1199 
2.08727 1.54875 16.1258 
2.06762 1.55034 16.1199 
2.08727 1.55595 16.1258 
2.08727 1.56315 16.1258 
2.08727 1.57036 16.1258 
2.10687 1.58313 16.1318 
2.10687 1.59033 16.1318 
2.10687 1.59753 16.1318 
2.10687 1.60472 16.1318 
2.12644 1.61026 16.1377 
2.10687 1.61192 16.1318 
2.12644 1.61745 16.1377 
2.12644 1.62464 16.1377 
2.14596 1.63016 16.1436 
2.12644 1.63183 16.1377 
2.14596 1.63734 16.1436 
2.12644 1.63902 16.1377 
2.16544 1.64283 16.1494 
2.14596 1.64452 16.1436 
2.16544 1.65001 16.1494 
2.14596 1.6517 16.1436 
2.16544 1.65718 16.1494 
2.14596 1.65888 16.1436 
2.16544 1.66435 16.1494 
2.16544 1.67153 16.1494 
2.16544 1.6787 16.1494 
2.16544 1.68588 16.1494 
2.18489 1.69132 16.1553 
2.16544 1.69305 16.1494 
2.18489 1.69848 16.1553 
2.16544 1.70022 16.1494 
2.18489 1.70565 16.1553 
2.16544 1.7074 16.1494 
2.18489 1.71282 16.1553 
2.16544 1.71457 16.1494 
2.16544 1.72175 16.1494 
2.16544 1.72892 16.1494 
2.20429 1.78982 16.1612 
2.20429 1.79698 16.1612 
2.20429 1.80413 16.1612 
2.20429 1.81129 16.1612 
2.20429 1.83277 16.1612 
2.20429 1.83993 16.1612 
2.20429 1.84709 16.1612 
2.20429 1.85425 16.1612 
2.20429 1.86141 16.1612 
2.20429 1.86857 16.1612 
2.20429 1.87573 16.1612 
2.20429 1.88289 16.1612 
2.20429 1.89005 16.1612 
2.22366 1.89527 16.167 
2.20429 1.89721 16.1612 
2.22366 1.90242 16.167 
2.20429 1.90436 16.1612 
2.22366 1.90957 16.167 
2.22366 1.91672 16.167 
1.82868 2.05892 16.0478 
1.80849 2.06107 16.0417 
1.82868 2.06622 16.0478 
1.80849 2.06838 16.0417 
1.78827 2.07054 16.0356 
1.768 2.07271 16.0295 
1.80849 2.07569 16.0417 
1.78827 2.07786 16.0356 
1.768 2.08003 16.0295 
1.74769 2.08221 16.0233 
1.72734 2.0844 16.0172 
1.78827 2.08518 16.0356 
1.768 2.08736 16.0295 
1.74769 2.08954 16.0233 
1.72734 2.09173 16.0172 
1.70695 2.09393 16.011 
1.82868 2.08813 16.0478 
1.80849 2.09031 16.0417 
1.78827 2.09249 16.0356 
1.768 2.09468 16.0295 
1.74769 2.09688 16.0233 
1.72734 2.09907 16.0172 
1.70695 2.10128 16.011 
1.82868 2.09543 16.0478 
1.80849 2.09762 16.0417 
1.78827 2.09981 16.0356 
1.768 2.10201 16.0295 
1.74769 2.10421 16.0233 
1.72734 2.10641 16.0172 
1.70695 2.10862 16.011 
1.68651 2.11084 16.0049 
1.78827 2.10713 16.0356 
1.768 2.10933 16.0295 
1.74769 2.11154 16.0233 
1.72734 2.11375 16.0172 
1.70695 2.11597 16.011 
1.68651 2.11819 16.0049 
1.78827 2.11444 16.0356 
1.768 2.11665 16.0295 
1.74769 2.11887 16.0233 
1.72734 2.12109 16.0172 
1.70695 2.12332 16.011 
1.68651 2.12555 16.0049 
1.768 2.12398 16.0295 
1.74769 2.1262 16.0233 
1.72734 2.12843 16.0172 
1.70695 2.13067 16.011 
1.68651 2.1329 16.0049 
1.74769 2.13353 16.0233 
1.72734 2.13577 16.0172 
1.70695 2.13801 16.011 
1.68651 2.14026 16.0049 
1.74769 2.14087 16.0233 
1.72734 2.14311 16.0172 
1.70695 2.14536 16.011 
1.68651 2.14761 16.0049 
1.74769 2.1482 16.0233 
1.72734 2.15045 16.0172 
1.70695 2.15271 16.011 
1.68651 2.15497 16.0049 
1.74769 2.15553 16.0233 
1.72734 2.15779 16.0172 
1.70695 2.16005 16.011 
1.68651 2.16232 16.0049 
1.74769 2.16286 16.0233 
1.72734 2.16513 16.0172 
1.70695 2.1674 16.011 
1.68651 2.16968 16.0049 
1.74769 2.17019 16.0233 
1.72734 2.17247 16.0172 
1.70695 2.17475 16.011 
1.68651 2.17703 16.0049 
1.74769 2.17752 16.0233 
1.72734 2.17981 16.0172 
1.70695 2.1821 16.011 
1.68651 2.18439 16.0049 
1.74769 2.18486 16.0233 
1.72734 2.18715 16.0172 
1.70695 2.18944 16.011 
1.68651 2.19174 16.0049 
1.74769 2.19219 16.0233 
1.72734 2.19449 16.0172 
1.70695 2.19679 16.011 
1.68651 2.1991 16.0049 
1.74769 2.19952 16.0233 
1.72734 2.20183 16.0172 
1.70695 2.20414 16.011 
1.68651 2.20645 16.0049 
1.74769 2.20685 16.0233 
1.72734 2.20917 16.0172 
1.70695 2.21148 16.011 
1.68651 2.21381 16.0049 
1.74769 2.21418 16.0233 
1.72734 2.2165 16.0172 
1.70695 2.21883 16.011 
1.68651 2.22116 16.0049 
1.66603 2.2235 15.9987 
1.74769 2.22151 16.0233 
1.72734 2.22384 16.0172 
1.70695 2.22618 16.011 
1.68651 2.22852 16.0049 
1.66603 2.23086 15.9987 
1.74769 2.22885 16.0233 
1.72734 2.23118 16.0172 
1.70695 2.23353 16.011 
1.68651 2.23587 16.0049 
1.74769 2.23618 16.0233 
1.72734 2.23852 16.0172 
1.70695 2.24087 16.011 
1.68651 2.24323 16.0049 
1.74769 2.24351 16.0233 
1.72734 2.24586 16.0172 
1.70695 2.24822 16.011 
1.68651 2.25058 16.0049 
1.74769 2.25084 16.0233 
1.72734 2.2532 16.0172 
1.70695 2.25557 16.011 
1.68651 2.25794 16.0049 
1.768 2.25581 16.0295 
1.74769 2.25817 16.0233 
1.72734 2.26054 16.0172 
1.70695 2.26291 16.011 
1.68651 2.26529 16.0049 
1.768 2.26313 16.0295 
1.74769 2.26551 16.0233 
1.72734 2.26788 16.0172 
1.70695 2.27026 16.011 
1.768 2.27046 16.0295 
1.74769 2.27284 16.0233 
1.72734 2.27522 16.0172 
1.768 2.27778 16.0295 
1.74769 2.28017 16.0233 
1.72734 2.28256 16.0172 
1.768 2.28511 16.0295 
1.74769 2.2875 16.0233 
1.72734 2.2899 16.0172 
1.78827 2.29004 16.0356 
1.768 2.29243 16.0295 
1.74769 2.29483 16.0233 
1.78827 2.29735 16.0356 
1.768 2.29976 16.0295 
1.71512 0.667887 16.043 
1.69458 0.668588 16.0373 
1.67399 0.669291 16.0317 
1.65336 0.669995 16.026 
1.69458 0.675935 16.0373 
1.67399 0.676646 16.0317 
1.65336 0.677357 16.026 
1.63269 0.67807 16.0203 
1.67399 0.684 16.0317 
1.65336 0.68472 16.026 
1.63269 0.685441 16.0203 
1.61198 0.686163 16.0146 
1.65336 0.692082 16.026 
1.63269 0.692811 16.0203 
1.61198 0.693541 16.0146 
1.59122 0.694273 16.0089 
1.65336 0.699445 16.026 
1.63269 0.700181 16.0203 
1.61198 0.700919 16.0146 
1.59122 0.701659 16.0089 
1.63269 0.707552 16.0203 
1.61198 0.708297 16.0146 
1.59122 0.709045 16.0089 
1.63269 0.714922 16.0203 
1.61198 0.715676 16.0146 
1.59122 0.716431 16.0089 
1.63269 0.722292 16.0203 
1.61198 0.723054 16.0146 
1.59122 0.723817 16.0089 
1.63269 0.729663 16.0203 
1.61198 0.730432 16.0146 
1.59122 0.731202 16.0089 
1.63269 0.737033 16.0203 
1.61198 0.73781 16.0146 
1.59122 0.738588 16.0089 
1.63269 0.744403 16.0203 
1.61198 0.745188 16.0146 
1.59122 0.745974 16.0089 
1.63269 0.751774 16.0203 
1.61198 0.752566 16.0146 
1.63269 0.759144 16.0203 
1.61198 0.759944 16.0146 
1.63269 0.766514 16.0203 
1.61198 0.767322 16.0146 
1.59122 0.768132 16.0089 
1.63269 0.773885 16.0203 
1.61198 0.7747 16.0146 
1.63269 0.781255 16.0203 
1.61198 0.782078 16.0146 
1.63269 0.788625 16.0203 
1.61198 0.789456 16.0146 
1.65336 0.795159 16.026 
1.63269 0.795996 16.0203 
1.61198 0.796835 16.0146 
1.65336 0.802521 16.026 
1.63269 0.803366 16.0203 
1.61198 0.804213 16.0146 
1.65336 0.809884 16.026 
1.63269 0.810736 16.0203 
1.61198 0.811591 16.0146 
1.65336 0.817246 16.026 
1.63269 0.818107 16.0203 
1.61198 0.818969 16.0146 
1.65336 0.824609 16.026 
1.63269 0.825477 16.0203 
1.67399 0.831097 16.0317 
1.65336 0.831971 16.026 
1.63269 0.832847 16.0203 
1.67399 0.838452 16.0317 
1.65336 0.839334 16.026 
1.63269 0.840218 16.0203 
1.67399 0.845807 16.0317 
1.65336 0.846696 16.026 
1.69458 0.852266 16.0373 
1.67399 0.853162 16.0317 
1.65336 0.854059 16.026 
1.69458 0.859613 16.0373 
1.67399 0.860517 16.0317 
1.65336 0.861422 16.026 
1.69458 0.866961 16.0373 
1.67399 0.867871 16.0317 
1.65336 0.868784 16.026 
1.71512 0.873391 16.043 
1.69458 0.874308 16.0373 
1.67399 0.875226 16.0317 
1.71512 0.88073 16.043 
1.69458 0.881655 16.0373 
1.67399 0.882581 16.0317 
1.67399 0.889936 16.0317 
2.42702 1.06087 16.2385 
2.42702 1.06794 16.2385 
2.42702 1.07501 16.2385 
2.40794 1.0761 16.2333 
2.38883 1.07719 16.228 
2.40794 1.08318 16.2333 
2.40794 1.09026 16.2333 
2.42702 1.09623 16.2385 
2.40794 1.09734 16.2333 
2.11712 1.11424 16.1534 
2.42702 1.1033 16.2385 
2.23452 1.11457 16.1856 
2.176 1.11799 16.1696 
2.15641 1.11913 16.1642 
2.11712 1.12143 16.1534 
2.09741 1.12259 16.148 
2.42702 1.11038 16.2385 
2.15641 1.12631 16.1642 
2.11712 1.12862 16.1534 
2.09741 1.12978 16.148 
2.07766 1.13094 16.1425 
2.42702 1.11745 16.2385 
2.11712 1.13581 16.1534 
2.09741 1.13698 16.148 
2.07766 1.13815 16.1425 
2.44605 1.12339 16.2437 
2.09741 1.14417 16.148 
2.07766 1.14535 16.1425 
2.05788 1.14653 16.1371 
2.03805 1.14771 16.1317 
2.44605 1.13045 16.2437 
2.07766 1.15256 16.1425 
2.05788 1.15374 16.1371 
2.03805 1.15493 16.1317 
2.44605 1.13752 16.2437 
2.07766 1.15976 16.1425 
2.05788 1.16095 16.1371 
2.03805 1.16215 16.1317 
2.44605 1.14458 16.2437 
2.03805 1.16937 16.1317 
2.01818 1.17058 16.1262 
2.03805 1.17659 16.1317 
2.01818 1.1778 16.1262 
2.03805 1.18381 16.1317 
2.01818 1.18503 16.1262 
2.03805 1.19102 16.1317 
2.01818 1.19225 16.1262 
1.99826 1.19349 16.1207 
2.01818 1.19948 16.1262 
1.99826 1.20072 16.1207 
2.01818 1.2067 16.1262 
1.99826 1.20795 16.1207 
2.01818 1.21393 16.1262 
1.99826 1.21518 16.1207 
2.01818 1.22116 16.1262 
1.99826 1.22242 16.1207 
2.01818 1.22838 16.1262 
1.99826 1.22965 16.1207 
1.99826 1.23688 16.1207 
1.99826 1.24412 16.1207 
1.99826 1.25135 16.1207 
1.99826 1.25858 16.1207 
1.99826 1.26582 16.1207 
1.99826 1.27305 16.1207 
1.97831 1.27437 16.1153 
1.95832 1.27569 16.1098 
1.99826 1.28028 16.1207 
1.97831 1.28161 16.1153 
1.95832 1.28294 16.1098 
1.99826 1.28752 16.1207 
1.97831 1.28885 16.1153 
1.95832 1.29018 16.1098 
1.99826 1.29475 16.1207 
1.97831 1.29609 16.1153 
1.95832 1.29743 16.1098 
1.99826 1.30198 16.1207 
1.97831 1.30333 16.1153 
1.95832 1.30468 16.1098 
1.97831 1.31057 16.1153 
1.95832 1.31193 16.1098 
1.97831 1.31781 16.1153 
1.95832 1.31918 16.1098 
1.97831 1.32505 16.1153 
1.95832 1.32642 16.1098 
1.97831 1.33229 16.1153 
1.95832 1.33367 16.1098 
1.93828 1.33506 16.1043 
1.97831 1.33953 16.1153 
1.95832 1.34092 16.1098 
1.93828 1.34231 16.1043 
1.97831 1.34678 16.1153 
1.95832 1.34817 16.1098 
1.97831 1.35402 16.1153 
1.95832 1.35542 16.1098 
1.97831 1.36126 16.1153 
1.95832 1.36267 16.1098 
1.97831 1.3685 16.1153 
1.95832 1.36991 16.1098 
1.97831 1.37574 16.1153 
1.95832 1.37716 16.1098 
1.97831 1.38298 16.1153 
1.95832 1.38441 16.1098 
1.97831 1.39022 16.1153 
1.95832 1.39166 16.1098 
1.97831 1.39746 16.1153 
1.97831 1.4047 16.1153 
1.97831 1.41194 16.1153 
1.97831 1.41918 16.1153 
1.97831 1.42642 16.1153 
1.97831 1.43366 16.1153 
1.99826 1.44665 16.1207 
1.97831 1.44815 16.1153 
1.99826 1.45388 16.1207 
1.97831 1.45539 16.1153 
1.99826 1.46112 16.1207 
1.99826 1.46835 16.1207 
1.99826 1.47558 16.1207 
2.01818 1.48128 16.1262 
1.99826 1.48282 16.1207 
2.01818 1.48851 16.1262 
1.99826 1.49005 16.1207 
2.01818 1.49574 16.1262 
1.99826 1.49728 16.1207 
2.01818 1.50296 16.1262 
1.99826 1.50451 16.1207 
2.03805 1.50863 16.1317 
2.01818 1.51019 16.1262 
1.99826 1.51175 16.1207 
2.03805 1.51585 16.1317 
2.01818 1.51741 16.1262 
1.99826 1.51898 16.1207 
2.03805 1.52307 16.1317 
2.01818 1.52464 16.1262 
1.99826 1.52621 16.1207 
2.03805 1.53029 16.1317 
2.01818 1.53186 16.1262 
2.03805 1.5375 16.1317 
2.01818 1.53909 16.1262 
2.03805 1.54472 16.1317 
2.03805 1.55194 16.1317 
2.03805 1.55916 16.1317 
2.07766 1.57036 16.1425 
2.07766 1.57756 16.1425 
2.07766 1.58476 16.1425 
2.07766 1.59197 16.1425 
2.07766 1.59917 16.1425 
2.07766 1.60637 16.1425 
2.07766 1.61358 16.1425 
2.11712 1.61745 16.1534 
2.09741 1.61911 16.148 
2.07766 1.62078 16.1425 
2.11712 1.62464 16.1534 
2.09741 1.62631 16.148 
2.11712 1.63183 16.1534 
2.09741 1.63351 16.148 
2.11712 1.63902 16.1534 
2.09741 1.6407 16.148 
2.13679 1.64452 16.1588 
2.11712 1.64621 16.1534 
2.13679 1.6517 16.1588 
2.11712 1.6534 16.1534 
2.13679 1.65888 16.1588 
2.11712 1.66058 16.1534 
2.13679 1.66606 16.1588 
2.11712 1.66777 16.1534 
2.13679 1.67324 16.1588 
2.11712 1.67496 16.1534 
2.13679 1.68042 16.1588 
2.15641 1.68588 16.1642 
2.13679 1.68761 16.1588 
2.15641 1.69305 16.1642 
2.13679 1.69479 16.1588 
2.15641 1.70022 16.1642 
2.13679 1.70197 16.1588 
2.15641 1.7074 16.1642 
2.13679 1.70915 16.1588 
2.15641 1.71457 16.1642 
2.15641 1.73609 16.1642 
2.15641 1.74327 16.1642 
2.15641 1.75044 16.1642 
2.15641 1.75762 16.1642 
2.176 1.76298 16.1696 
2.15641 1.76479 16.1642 
2.176 1.77015 16.1696 
2.15641 1.77196 16.1642 
2.176 1.77732 16.1696 
2.15641 1.77914 16.1642 
2.176 1.78448 16.1696 
2.15641 1.78631 16.1642 
2.176 1.79165 16.1696 
2.15641 1.79349 16.1642 
2.176 1.79882 16.1696 
2.176 1.80598 16.1696 
2.176 1.81315 16.1696 
2.176 1.82032 16.1696 
2.176 1.82748 16.1696 
2.176 1.83465 16.1696 
2.176 1.84181 16.1696 
2.176 1.84898 16.1696 
2.19554 1.85425 16.1749 
2.176 1.85615 16.1696 
2.19554 1.86141 16.1749 
2.176 1.86331 16.1696 
2.19554 1.86857 16.1749 
