VERSION .7
FIELDS x y z
SIZE 4 4 4
TYPE F F F
COUNT 1 1 1
WIDTH 1940
HEIGHT 1
VIEWPOINT 0 0 0 1 0 0 0
POINTS 1940
DATA ascii
1.43945 2.23525 16.0221 
1.50286 2.23556 16.035 
1.48177 2.23792 16.0307 
1.46063 2.24029 16.0264 
1.43945 2.24266 16.0221 
1.48177 2.24531 16.0307 
1.46063 2.24768 16.0264 
1.43945 2.25006 16.0221 
1.48177 2.25269 16.0307 
1.46063 2.25507 16.0264 
1.43945 2.25746 16.0221 
1.48177 2.26008 16.0307 
1.46063 2.26247 16.0264 
1.43945 2.26486 16.0221 
1.48177 2.26747 16.0307 
1.46063 2.26986 16.0264 
1.43945 2.27226 16.0221 
1.48177 2.27485 16.0307 
1.46063 2.27726 16.0264 
1.43945 2.27966 16.0221 
1.48177 2.28224 16.0307 
1.46063 2.28465 16.0264 
1.43945 2.28706 16.0221 
1.48177 2.28962 16.0307 
1.46063 2.29204 16.0264 
1.43945 2.29447 16.0221 
1.48177 2.29701 16.0307 
1.46063 2.29944 16.0264 
1.43945 2.30187 16.0221 
1.48177 2.3044 16.0307 
1.46063 2.30683 16.0264 
1.43945 2.30927 16.0221 
1.48177 2.31178 16.0307 
1.46063 2.31422 16.0264 
1.48177 2.31917 16.0307 
1.46063 2.32162 16.0264 
1.48177 2.32655 16.0307 
1.86665 1.97672 16.1316 
1.84624 1.97877 16.1279 
1.82579 1.98082 16.1242 
1.86665 1.98396 16.1316 
1.84624 1.98601 16.1279 
1.82579 1.98807 16.1242 
1.8053 1.99013 16.1206 
1.84624 1.99326 16.1279 
1.82579 1.99533 16.1242 
1.8053 1.9974 16.1206 
1.78476 1.99947 16.1169 
1.76418 2.00155 16.1132 
1.84624 2.00051 16.1279 
1.82579 2.00258 16.1242 
1.8053 2.00466 16.1206 
1.78476 2.00674 16.1169 
1.76418 2.00883 16.1132 
1.74356 2.01092 16.1095 
1.72289 2.01302 16.1058 
1.70219 2.01512 16.1021 
1.68143 2.01722 16.0984 
1.8053 2.01192 16.1206 
1.78476 2.01401 16.1169 
1.76418 2.01611 16.1132 
1.74356 2.01821 16.1095 
1.72289 2.02031 16.1058 
1.70219 2.02242 16.1021 
1.68143 2.02453 16.0984 
1.66064 2.02664 16.0947 
1.78476 2.02129 16.1169 
1.76418 2.02339 16.1132 
1.74356 2.02549 16.1095 
1.72289 2.0276 16.1058 
1.70219 2.02972 16.1021 
1.68143 2.03184 16.0984 
1.66064 2.03396 16.0947 
1.78476 2.02856 16.1169 
1.76418 2.03066 16.1132 
1.74356 2.03278 16.1095 
1.72289 2.0349 16.1058 
1.70219 2.03702 16.1021 
1.68143 2.03915 16.0984 
1.66064 2.04128 16.0947 
1.6398 2.04341 16.0909 
1.74356 2.04006 16.1095 
1.72289 2.04219 16.1058 
1.70219 2.04432 16.1021 
1.68143 2.04645 16.0984 
1.66064 2.04859 16.0947 
1.6398 2.05074 16.0909 
1.74356 2.04735 16.1095 
1.72289 2.04948 16.1058 
1.70219 2.05162 16.1021 
1.68143 2.05376 16.0984 
1.66064 2.05591 16.0947 
1.6398 2.05806 16.0909 
1.74356 2.05464 16.1095 
1.72289 2.05678 16.1058 
1.70219 2.05892 16.1021 
1.68143 2.06107 16.0984 
1.66064 2.06323 16.0947 
1.6398 2.06539 16.0909 
1.61892 2.06755 16.0872 
1.72289 2.06407 16.1058 
1.70219 2.06622 16.1021 
1.68143 2.06838 16.0984 
1.66064 2.07054 16.0947 
1.6398 2.07271 16.0909 
1.61892 2.07488 16.0872 
1.68143 2.07569 16.0984 
1.66064 2.07786 16.0947 
1.6398 2.08003 16.0909 
1.61892 2.08221 16.0872 
1.59799 2.0844 16.0834 
1.66064 2.08518 16.0947 
1.6398 2.08736 16.0909 
1.61892 2.08954 16.0872 
1.59799 2.09173 16.0834 
1.57702 2.09393 16.0797 
1.6398 2.09468 16.0909 
1.61892 2.09688 16.0872 
1.59799 2.09907 16.0834 
1.57702 2.10128 16.0797 
1.55601 2.10348 16.0759 
1.61892 2.10421 16.0872 
1.59799 2.10641 16.0834 
1.57702 2.10862 16.0797 
1.55601 2.11084 16.0759 
1.53495 2.11306 16.0721 
1.57702 2.11597 16.0797 
1.55601 2.11819 16.0759 
1.53495 2.12042 16.0721 
1.51385 2.12266 16.0684 
1.57702 2.12332 16.0797 
1.55601 2.12555 16.0759 
1.53495 2.12779 16.0721 
1.51385 2.13003 16.0684 
1.4927 2.13227 16.0646 
1.57702 2.13067 16.0797 
1.55601 2.1329 16.0759 
1.53495 2.13515 16.0721 
1.51385 2.1374 16.0684 
1.4927 2.13965 16.0646 
1.55601 2.14026 16.0759 
1.53495 2.14251 16.0721 
1.51385 2.14477 16.0684 
1.4927 2.14703 16.0646 
1.47151 2.14929 16.0608 
1.53495 2.14987 16.0721 
1.51385 2.15214 16.0684 
1.4927 2.1544 16.0646 
1.47151 2.15668 16.0608 
1.51385 2.15951 16.0684 
1.4927 2.16178 16.0646 
1.47151 2.16406 16.0608 
1.51385 2.16688 16.0684 
1.4927 2.16916 16.0646 
1.47151 2.17145 16.0608 
1.45027 2.17374 16.057 
1.51385 2.17425 16.0684 
1.4927 2.17654 16.0646 
1.47151 2.17884 16.0608 
1.45027 2.18114 16.057 
1.4927 2.18392 16.0646 
1.47151 2.18622 16.0608 
1.45027 2.18853 16.057 
1.4927 2.1913 16.0646 
1.47151 2.19361 16.0608 
1.45027 2.19592 16.057 
1.4927 2.19867 16.0646 
1.47151 2.20099 16.0608 
1.45027 2.20332 16.057 
1.47151 2.20838 16.0608 
1.45027 2.21071 16.057 
1.42899 2.21305 16.0532 
1.47151 2.21576 16.0608 
1.45027 2.21811 16.057 
1.42899 2.22045 16.0532 
1.47151 2.22315 16.0608 
1.45027 2.2255 16.057 
1.42899 2.22785 16.0532 
1.47151 2.23054 16.0608 
1.45027 2.23289 16.057 
1.42899 2.23525 16.0532 
1.47151 2.23792 16.0608 
1.45027 2.24029 16.057 
1.42899 2.24266 16.0532 
1.45027 2.24768 16.057 
1.42899 2.25006 16.0532 
1.45027 2.25507 16.057 
1.42899 2.25746 16.0532 
1.47151 2.26008 16.0608 
1.45027 2.26247 16.057 
1.42899 2.26486 16.0532 
1.47151 2.26747 16.0608 
1.45027 2.26986 16.057 
1.42899 2.27226 16.0532 
1.47151 2.27485 16.0608 
1.45027 2.27726 16.057 
1.42899 2.27966 16.0532 
1.47151 2.28224 16.0608 
1.45027 2.28465 16.057 
1.42899 2.28706 16.0532 
1.45027 2.29204 16.057 
1.45027 2.29944 16.057 
1.47151 2.3044 16.0608 
1.45027 2.30683 16.057 
1.47151 2.31178 16.0608 
1.45027 2.31422 16.057 
1.65187 2.05591 16.1204 
1.63095 2.05806 16.1172 
1.65187 2.06323 16.1204 
1.63095 2.06539 16.1172 
1.60998 2.06755 16.1139 
1.58897 2.06972 16.1107 
1.65187 2.07054 16.1204 
1.63095 2.07271 16.1172 
1.60998 2.07488 16.1139 
1.58897 2.07706 16.1107 
1.65187 2.07786 16.1204 
1.63095 2.08003 16.1172 
1.60998 2.08221 16.1139 
1.58897 2.0844 16.1107 
1.56791 2.08658 16.1074 
1.54682 2.08878 16.1042 
1.63095 2.08736 16.1172 
1.60998 2.08954 16.1139 
1.58897 2.09173 16.1107 
1.56791 2.09393 16.1074 
1.54682 2.09613 16.1042 
1.63095 2.09468 16.1172 
1.60998 2.09688 16.1139 
1.58897 2.09907 16.1107 
1.56791 2.10128 16.1074 
1.54682 2.10348 16.1042 
1.52567 2.1057 16.1009 
1.60998 2.10421 16.1139 
1.58897 2.10641 16.1107 
1.56791 2.10862 16.1074 
1.54682 2.11084 16.1042 
1.52567 2.11306 16.1009 
1.56791 2.11597 16.1074 
1.54682 2.11819 16.1042 
1.52567 2.12042 16.1009 
1.50448 2.12266 16.0976 
1.56791 2.12332 16.1074 
1.54682 2.12555 16.1042 
1.52567 2.12779 16.1009 
1.50448 2.13003 16.0976 
1.48325 2.13227 16.0944 
1.52567 2.13515 16.1009 
1.50448 2.1374 16.0976 
1.48325 2.13965 16.0944 
1.50448 2.14477 16.0976 
1.48325 2.14703 16.0944 
1.48325 2.1544 16.0944 
1.46197 2.15668 16.0911 
1.48325 2.16178 16.0944 
1.46197 2.16406 16.0911 
1.44065 2.16635 16.0878 
1.46197 2.17145 16.0911 
1.44065 2.17374 16.0878 
1.46197 2.17884 16.0911 
1.44065 2.18114 16.0878 
1.46197 2.18622 16.0911 
1.44065 2.18853 16.0878 
1.46197 2.19361 16.0911 
1.44065 2.19592 16.0878 
1.46197 2.20099 16.0911 
1.44065 2.20332 16.0878 
1.41928 2.20565 16.0845 
1.46197 2.20838 16.0911 
1.44065 2.21071 16.0878 
1.41928 2.21305 16.0845 
1.46197 2.21576 16.0911 
1.44065 2.21811 16.0878 
1.41928 2.22045 16.0845 
1.44065 2.2255 16.0878 
1.41928 2.22785 16.0845 
1.44065 2.23289 16.0878 
1.41928 2.23525 16.0845 
1.44065 2.24029 16.0878 
1.41928 2.24266 16.0845 
1.44065 2.24768 16.0878 
1.44065 2.25507 16.0878 
1.44065 2.26247 16.0878 
1.44065 2.26986 16.0878 
1.44065 2.27726 16.0878 
1.64372 2.04859 16.1463 
1.62273 2.05074 16.1436 
1.64372 2.05591 16.1463 
1.62273 2.05806 16.1436 
1.60169 2.06022 16.1409 
1.64372 2.06323 16.1463 
1.62273 2.06539 16.1436 
1.60169 2.06755 16.1409 
1.58061 2.06972 16.1381 
1.64372 2.07054 16.1463 
1.62273 2.07271 16.1436 
1.60169 2.07488 16.1409 
1.58061 2.07706 16.1381 
1.55948 2.07924 16.1354 
1.62273 2.08003 16.1436 
1.60169 2.08221 16.1409 
1.58061 2.0844 16.1381 
1.55948 2.08658 16.1354 
1.53831 2.08878 16.1326 
1.60169 2.08954 16.1409 
1.58061 2.09173 16.1381 
1.55948 2.09393 16.1354 
1.53831 2.09613 16.1326 
1.51709 2.09833 16.1299 
1.58061 2.09907 16.1381 
1.55948 2.10128 16.1354 
1.53831 2.10348 16.1326 
1.51709 2.1057 16.1299 
1.55948 2.10862 16.1354 
1.53831 2.11084 16.1326 
1.51709 2.11306 16.1299 
1.49583 2.11528 16.1271 
1.53831 2.11819 16.1326 
1.51709 2.12042 16.1299 
1.49583 2.12266 16.1271 
1.51709 2.12779 16.1299 
1.49583 2.13003 16.1271 
1.49583 2.1374 16.1271 
1.47453 2.13965 16.1244 
1.49583 2.14477 16.1271 
1.47453 2.14703 16.1244 
1.96719 1.90696 16.2072 
1.96719 1.91415 16.2072 
1.96719 1.92135 16.2072 
1.90596 1.95617 16.2008 
1.90596 1.96338 16.2008 
1.88547 1.96541 16.1986 
1.88547 1.97264 16.1986 
1.57291 2.09173 16.1658 
1.55172 2.09393 16.1635 
1.53049 2.09613 16.1613 
1.55172 2.10128 16.1635 
1.53049 2.10348 16.1613 
1.50921 2.1057 16.1591 
1.55172 2.10862 16.1635 
1.53049 2.11084 16.1613 
1.50921 2.11306 16.1591 
1.48789 2.11528 16.1568 
1.53049 2.11819 16.1613 
1.50921 2.12042 16.1591 
1.50921 2.12779 16.1591 
3.87696 1.21569 16.3802 
4.05818 1.20983 16.3948 
1.96105 1.87817 16.2255 
1.96105 1.88537 16.2255 
1.94063 1.88731 16.2238 
1.98142 1.89062 16.2271 
1.96105 1.89257 16.2255 
1.94063 1.89451 16.2238 
1.98142 1.89781 16.2271 
1.96105 1.89976 16.2255 
1.94063 1.90172 16.2238 
1.98142 1.905 16.2271 
1.96105 1.90696 16.2255 
1.94063 1.90892 16.2238 
1.98142 1.91219 16.2271 
1.96105 1.91415 16.2255 
1.94063 1.91612 16.2238 
1.98142 1.91938 16.2271 
1.96105 1.92135 16.2255 
1.94063 1.92333 16.2238 
1.96105 1.92855 16.2255 
1.94063 1.93053 16.2238 
1.94063 1.93773 16.2238 
1.94063 1.94494 16.2238 
1.92018 1.95415 16.2222 
1.89968 1.95617 16.2205 
1.92018 1.96136 16.2222 
1.89968 1.96338 16.2205 
1.87914 1.96541 16.2189 
1.85856 1.96744 16.2172 
1.89968 1.9706 16.2205 
1.87914 1.97264 16.2189 
1.85856 1.97468 16.2172 
1.87914 1.97986 16.2189 
1.85856 1.98191 16.2172 
1.83794 1.98396 16.2155 
1.87914 1.98709 16.2189 
1.85856 1.98914 16.2172 
1.83794 1.9912 16.2155 
1.83794 1.99844 16.2155 
1.69236 2.04219 16.2038 
1.67139 2.04432 16.2021 
1.67139 2.05162 16.2021 
1.58707 2.08221 16.1953 
1.56588 2.0844 16.1936 
1.58707 2.08954 16.1953 
1.56588 2.09173 16.1936 
1.54465 2.09393 16.1919 
1.56588 2.09907 16.1936 
1.54465 2.10128 16.1919 
1.52337 2.10348 16.1902 
1.54465 2.10862 16.1919 
1.52337 2.11084 16.1902 
3.94088 1.21119 16.356 
3.85776 1.21682 16.3513 
3.94088 1.21767 16.356 
3.90772 1.21993 16.3541 
3.87444 1.22219 16.3522 
3.85776 1.22333 16.3513 
4.03961 1.21739 16.3616 
4.02323 1.21851 16.3606 
1.97576 1.86906 16.2451 
1.95535 1.87098 16.2439 
1.97576 1.87624 16.2451 
1.95535 1.87817 16.2439 
1.97576 1.88343 16.2451 
1.95535 1.88537 16.2439 
1.9349 1.88731 16.2428 
1.97576 1.89062 16.2451 
1.95535 1.89257 16.2439 
1.9349 1.89451 16.2428 
1.97576 1.89781 16.2451 
1.95535 1.89976 16.2439 
1.9349 1.90172 16.2428 
1.97576 1.905 16.2451 
1.95535 1.90696 16.2439 
1.9349 1.90892 16.2428 
1.95535 1.91415 16.2439 
1.9349 1.91612 16.2428 
1.95535 1.92135 16.2439 
1.9349 1.92333 16.2428 
1.95535 1.92855 16.2439 
1.9349 1.93053 16.2428 
1.95535 1.93574 16.2439 
1.9349 1.93773 16.2428 
1.9349 1.94494 16.2428 
1.83204 1.97672 16.2369 
1.85269 1.98914 16.2381 
1.83204 1.9912 16.2369 
1.85269 1.99638 16.2381 
1.83204 1.99844 16.2369 
1.81133 2.00051 16.2358 
1.83204 2.00568 16.2369 
1.81133 2.00776 16.2358 
1.68622 2.04219 16.2287 
1.68622 2.04948 16.2287 
1.66522 2.05162 16.2275 
1.64417 2.05376 16.2263 
1.66522 2.05892 16.2275 
1.64417 2.06107 16.2263 
1.62307 2.06323 16.2252 
1.64417 2.06838 16.2263 
1.62307 2.07054 16.2252 
1.60194 2.07271 16.224 
1.58076 2.07488 16.2228 
1.62307 2.07786 16.2252 
1.60194 2.08003 16.224 
1.58076 2.08221 16.2228 
1.60194 2.08736 16.224 
1.58076 2.08954 16.2228 
3.78742 1.22789 16.3217 
3.7028 1.23365 16.319 
4.0366 1.21739 16.3297 
3.93776 1.22415 16.3265 
3.92118 1.22528 16.326 
3.90457 1.22642 16.3255 
3.85455 1.22984 16.3239 
1.9501 1.87817 16.2625 
1.97053 1.88343 16.2631 
1.9501 1.88537 16.2625 
1.97053 1.89062 16.2631 
1.9501 1.89257 16.2625 
1.97053 1.89781 16.2631 
1.9501 1.89976 16.2625 
1.97053 1.905 16.2631 
1.9501 1.90696 16.2625 
1.97053 1.91219 16.2631 
1.9501 1.91415 16.2625 
1.97053 1.91938 16.2631 
1.9501 1.92135 16.2625 
1.97053 1.92656 16.2631 
1.9501 1.92855 16.2625 
1.9501 1.93574 16.2625 
1.9501 1.94294 16.2625 
1.9501 1.95013 16.2625 
1.92963 1.95214 16.2618 
1.80593 2.00776 16.2578 
1.78516 2.01709 16.2571 
1.63858 2.06838 16.2524 
1.61747 2.07786 16.2517 
4.03282 1.22383 16.298 
3.90072 1.2329 16.2969 
3.98351 1.23367 16.2976 
1.98613 1.85278 16.2815 
1.98613 1.85996 16.2815 
1.96574 1.91219 16.2813 
1.96574 1.91938 16.2813 
1.96574 1.92656 16.2813 
1.9453 1.92855 16.2811 
1.96574 1.93375 16.2813 
1.9453 1.93574 16.2811 
1.9453 1.94294 16.2811 
1.9453 1.95013 16.2811 
6.21849 1.67265 16.3156 
6.20587 1.674 16.3155 
6.21849 1.6783 16.3156 
4.0773 1.22688 16.2655 
4.02827 1.23027 16.2663 
2.00213 1.82935 16.2989 
2.00213 1.83653 16.2989 
2.00213 1.8437 16.2989 
2.00213 1.85088 16.2989 
2.00213 1.85805 16.2989 
4.00656 1.2314 16.2354 
3.99014 1.23899 16.2361 
3.97368 1.24013 16.2368 
2.01849 1.82032 16.3155 
2.01849 1.82748 16.3155 
3.5408 1.26281 16.2138 
3.437 1.2966 16.223 
3.53436 1.26281 16.1941 
4.09965 1.26195 16.13 
3.52745 1.26281 16.1745 
3.42422 1.2966 16.1887 
3.4172 1.2966 16.1718 
3.40978 1.2966 16.155 
3.40196 1.2966 16.1385 
4.06036 1.28117 15.9985 
2.1208 1.80208 16.4108 
2.1208 1.8092 16.4108 
2.1208 1.81632 16.4108 
3.39374 1.2966 16.1221 
4.04857 1.28757 15.9663 
4.03278 1.28875 15.97 
3.96935 1.29993 15.9851 
3.48589 1.26281 16.0794 
3.38513 1.2966 16.1059 
4.036 1.29398 15.9343 
4.02031 1.29516 15.9385 
4.02031 1.30158 15.9385 
3.95726 1.30636 15.9551 
3.37613 1.2966 16.09 
4.02266 1.30038 15.9027 
3.92871 1.314 15.9299 
5.83175 1.70599 15.3787 
5.83175 1.71171 15.3787 
3.36674 1.2966 16.0742 
4.00856 1.30679 15.8714 
3.9153 1.32045 15.9009 
3.35698 1.28995 16.0587 
3.35698 1.2966 16.0587 
3.34044 1.29783 16.0644 
3.99371 1.3132 15.8405 
3.90119 1.32689 15.8722 
3.34685 1.28995 16.0435 
3.97812 1.3196 15.8099 
3.88639 1.32689 15.8438 
3.88639 1.33333 15.8438 
3.33635 1.28995 16.0285 
3.33635 1.2966 16.0285 
3.96179 1.32601 15.7797 
3.90131 1.33088 15.8037 
3.88612 1.3321 15.8098 
3.87091 1.33333 15.8158 
2.11932 2.04426 16.5126 
3.32549 1.28995 16.0137 
3.32549 1.2966 16.0137 
3.88486 1.33731 15.7754 
3.86982 1.33854 15.7818 
3.85476 1.33977 15.7882 
3.88258 1.3425 15.7407 
3.86773 1.34374 15.7475 
3.85285 1.34497 15.7542 
3.38095 1.27062 15.9471 
3.83521 1.35141 15.7271 
3.87926 1.35411 15.7058 
3.86461 1.35535 15.7129 
3.84597 1.36178 15.6854 
3.83146 1.36303 15.6929 
3.37007 1.26942 15.9076 
3.40087 1.27781 15.841 
3.40087 1.2844 15.841 
3.44025 1.30461 15.761 
3.42619 1.30583 15.7705 
3.48229 1.31403 15.7325 
3.48229 1.32056 15.7325 
3.46424 1.31403 15.7143 
3.46424 1.32056 15.7143 
2.75731 1.50669 16.1464 
2.74534 1.52181 16.1603 
2.73336 1.53695 16.1743 
2.73336 1.54379 16.1743 
2.74947 1.50669 16.1456 
2.73784 1.52181 16.1598 
2.7262 1.54379 16.1741 
2.71453 1.55897 16.1884 
2.74161 1.50669 16.145 
2.73033 1.52181 16.1595 
2.73033 1.52863 16.1595 
2.71904 1.54379 16.174 
2.70771 1.56581 16.1886 
2.69637 1.58787 16.2032 
2.69637 1.59471 16.2032 
2.685 1.60998 16.2178 
2.685 1.61683 16.2178 
2.685 1.62368 16.2178 
2.685 1.63053 16.2178 
2.67362 1.65956 16.2325 
2.67362 1.66642 16.2325 
2.67362 1.67327 16.2325 
2.66221 1.7161 16.2472 
2.66221 1.72296 16.2472 
2.66221 1.72983 16.2472 
2.66221 1.73669 16.2472 
2.66221 1.74356 16.2472 
2.66221 1.75042 16.2472 
2.66221 1.75729 16.2472 
2.68992 1.59471 16.2039 
2.68992 1.60156 16.2039 
2.67891 1.63053 16.2188 
2.67891 1.63738 16.2188 
2.66788 1.66642 16.2337 
2.66788 1.67327 16.2337 
2.66788 1.68013 16.2337 
2.66788 1.68699 16.2337 
2.65683 1.70237 16.2487 
2.65683 1.70924 16.2487 
2.65683 1.7161 16.2487 
2.65683 1.72296 16.2487 
2.66788 1.84471 16.2337 
2.66788 1.85157 16.2337 
2.66788 1.85843 16.2337 
2.66788 1.86529 16.2337 
2.67891 1.90457 16.2188 
2.67891 1.91142 16.2188 
2.68992 1.93693 16.2039 
2.76791 1.4601 16.0845 
2.75743 1.46831 16.0994 
2.68349 1.6084 16.2047 
2.67284 1.64423 16.2198 
2.66218 1.67327 16.235 
2.66218 1.68013 16.235 
2.66218 1.68699 16.235 
2.66218 1.69385 16.235 
2.66218 1.77614 16.235 
2.66218 1.783 16.235 
2.66218 1.78985 16.235 
2.66218 1.79671 16.235 
2.66218 1.80357 16.235 
2.66218 1.81043 16.235 
2.66218 1.81728 16.235 
2.66218 1.82414 16.235 
2.66218 1.831 16.235 
2.66218 1.83786 16.235 
2.67284 1.90457 16.2198 
2.67284 1.91142 16.2198 
2.67284 1.91827 16.2198 
2.68349 1.93693 16.2047 
2.68349 1.94377 16.2047 
2.75857 1.4601 16.0834 
2.74846 1.46831 16.0986 
2.67708 1.6084 16.2057 
2.67708 1.61525 16.2057 
2.6668 1.63738 16.2211 
2.6668 1.64423 16.2211 
2.6668 1.65108 16.2211 
2.65651 1.66642 16.2365 
2.65651 1.67327 16.2365 
2.65651 1.68013 16.2365 
2.65651 1.68699 16.2365 
2.65651 1.69385 16.2365 
2.65651 1.7007 16.2365 
2.64619 1.7161 16.252 
2.64619 1.72296 16.252 
2.64619 1.72983 16.252 
2.65651 1.75557 16.2365 
2.65651 1.76242 16.2365 
2.65651 1.76928 16.2365 
2.65651 1.77614 16.2365 
2.65651 1.783 16.2365 
2.65651 1.78985 16.2365 
2.65651 1.79671 16.2365 
2.65651 1.80357 16.2365 
2.65651 1.81043 16.2365 
2.65651 1.81728 16.2365 
2.65651 1.82414 16.2365 
2.65651 1.831 16.2365 
2.65651 1.83786 16.2365 
2.65651 1.84471 16.2365 
2.6668 1.89087 16.2211 
2.6668 1.89772 16.2211 
2.6668 1.90457 16.2211 
2.6668 1.91142 16.2211 
2.67708 1.94377 16.2057 
2.84566 1.37208 15.9301 
2.82652 1.38146 15.9604 
2.8073 1.39763 15.9908 
2.75894 1.44511 16.0672 
2.74921 1.4601 16.0826 
2.73946 1.46831 16.098 
2.68058 1.56581 16.1912 
2.68058 1.57264 16.1912 
2.67069 1.58787 16.2068 
2.67069 1.59471 16.2068 
2.67069 1.60156 16.2068 
2.67069 1.6084 16.2068 
2.67069 1.61525 16.2068 
2.66079 1.63738 16.2224 
2.66079 1.64423 16.2224 
2.65087 1.66642 16.2381 
2.65087 1.67327 16.2381 
2.65087 1.68013 16.2381 
2.65087 1.68699 16.2381 
2.65087 1.69385 16.2381 
2.64093 1.70237 16.2538 
2.64093 1.70924 16.2538 
2.64093 1.7161 16.2538 
2.64093 1.72296 16.2538 
2.65087 1.75557 16.2381 
2.65087 1.76242 16.2381 
2.65087 1.76928 16.2381 
2.65087 1.77614 16.2381 
2.65087 1.783 16.2381 
2.65087 1.78985 16.2381 
2.65087 1.79671 16.2381 
2.65087 1.80357 16.2381 
2.65087 1.81043 16.2381 
2.65087 1.81728 16.2381 
2.65087 1.82414 16.2381 
2.65087 1.831 16.2381 
2.65087 1.83786 16.2381 
2.65087 1.84471 16.2381 
2.65087 1.85157 16.2381 
2.65087 1.85843 16.2381 
2.65087 1.86529 16.2381 
2.65087 1.87215 16.2381 
2.66079 1.89087 16.2224 
2.66079 1.89772 16.2224 
2.66079 1.90457 16.2224 
2.66079 1.91142 16.2224 
2.67069 1.94377 16.2068 
2.67069 1.95062 16.2068 
2.84174 1.36405 15.9119 
2.79569 1.39763 15.9888 
2.74919 1.44511 16.0664 
2.73983 1.4601 16.082 
2.73046 1.46831 16.0977 
2.70223 1.52033 16.1448 
2.68332 1.55062 16.1764 
2.67384 1.57264 16.1922 
2.66434 1.60156 16.2081 
2.66434 1.6084 16.2081 
2.66434 1.61525 16.2081 
2.65482 1.63738 16.224 
2.65482 1.64423 16.224 
2.65482 1.65108 16.224 
2.64528 1.67327 16.2399 
2.64528 1.68013 16.2399 
2.64528 1.68699 16.2399 
2.64528 1.69385 16.2399 
2.64528 1.7007 16.2399 
2.64528 1.783 16.2399 
2.64528 1.78985 16.2399 
2.64528 1.79671 16.2399 
2.64528 1.80357 16.2399 
2.64528 1.81043 16.2399 
2.64528 1.81728 16.2399 
2.64528 1.82414 16.2399 
2.64528 1.831 16.2399 
2.64528 1.83786 16.2399 
2.64528 1.84471 16.2399 
2.64528 1.85157 16.2399 
2.64528 1.85843 16.2399 
2.64528 1.86529 16.2399 
2.65482 1.90457 16.224 
2.65482 1.91142 16.224 
2.66434 1.93693 16.2081 
2.66434 1.94377 16.2081 
2.66434 1.95062 16.2081 
2.66434 1.95746 16.2081 
2.82821 1.36405 15.9092 
2.80175 1.38146 15.9558 
2.78403 1.39763 15.9871 
2.75731 1.42877 16.0343 
2.73942 1.44511 16.0659 
2.73044 1.4601 16.0817 
2.72145 1.46831 16.0976 
2.71244 1.47654 16.1135 
2.71244 1.48335 16.1135 
2.71244 1.49015 16.1135 
2.70341 1.4916 16.1294 
2.70341 1.49841 16.1294 
2.69437 1.51351 16.1453 
2.65802 1.6084 16.2095 
2.65802 1.61525 16.2095 
2.64888 1.65108 16.2256 
2.64888 1.65793 16.2256 
2.64888 1.66478 16.2256 
2.63973 1.67327 16.2418 
2.63973 1.68013 16.2418 
2.63973 1.68699 16.2418 
2.63973 1.69385 16.2418 
2.63973 1.75557 16.2418 
2.63973 1.76242 16.2418 
2.63973 1.76928 16.2418 
2.63973 1.77614 16.2418 
2.63973 1.783 16.2418 
2.63973 1.78985 16.2418 
2.63973 1.79671 16.2418 
2.63973 1.80357 16.2418 
2.63973 1.81043 16.2418 
2.63973 1.81728 16.2418 
2.63973 1.82414 16.2418 
2.63973 1.831 16.2418 
2.63973 1.83786 16.2418 
2.63973 1.84471 16.2418 
2.63973 1.85157 16.2418 
2.63973 1.85843 16.2418 
2.64888 1.91142 16.2256 
2.65802 1.94377 16.2095 
2.65802 1.95062 16.2095 
2.65802 1.95746 16.2095 
2.65802 1.9643 16.2095 
2.65802 1.97115 16.2095 
2.78929 1.38146 15.954 
2.77233 1.39763 15.9857 
2.74676 1.42877 16.0335 
2.72964 1.44511 16.0655 
2.71244 1.46831 16.0976 
2.70382 1.48335 16.1138 
2.70382 1.49015 16.1138 
2.69518 1.4916 16.1299 
2.69518 1.49841 16.1299 
2.65173 1.6084 16.2111 
2.65173 1.61525 16.2111 
2.63423 1.68699 16.2438 
2.63423 1.69385 16.2438 
2.63423 1.76928 16.2438 
2.63423 1.77614 16.2438 
2.63423 1.783 16.2438 
2.63423 1.78985 16.2438 
2.63423 1.79671 16.2438 
2.63423 1.80357 16.2438 
2.63423 1.81043 16.2438 
2.63423 1.81728 16.2438 
2.63423 1.82414 16.2438 
2.63423 1.831 16.2438 
2.63423 1.83786 16.2438 
2.63423 1.84471 16.2438 
2.63423 1.85157 16.2438 
2.63423 1.85843 16.2438 
2.64299 1.90457 16.2274 
2.64299 1.91142 16.2274 
2.64299 1.93197 16.2274 
2.65173 1.93693 16.2111 
2.64299 1.93882 16.2274 
2.65173 1.94377 16.2111 
2.64299 1.94567 16.2274 
2.65173 1.95062 16.2111 
2.64299 1.95253 16.2274 
2.65173 1.95746 16.2111 
2.65173 1.9643 16.2111 
2.65173 1.97115 16.2111 
2.65173 1.97799 16.2111 
2.80097 1.35733 15.9046 
2.78487 1.3734 15.9365 
2.7768 1.38146 15.9525 
2.7606 1.39763 15.9846 
2.74435 1.41386 16.0168 
2.7362 1.422 16.033 
2.7362 1.42877 16.033 
2.71985 1.44511 16.0654 
2.71165 1.4601 16.0817 
2.70344 1.46831 16.0979 
2.6952 1.47654 16.1143 
2.6952 1.48335 16.1143 
2.68696 1.4916 16.1306 
2.68696 1.49841 16.1306 
2.6787 1.51351 16.147 
2.6787 1.52033 16.147 
2.64548 1.60156 16.2128 
2.64548 1.6084 16.2128 
2.64548 1.61525 16.2128 
2.63714 1.64423 16.2294 
2.63714 1.65108 16.2294 
2.62878 1.69385 16.2459 
2.62878 1.76242 16.2459 
2.62878 1.76928 16.2459 
2.62878 1.77614 16.2459 
2.62878 1.783 16.2459 
2.62878 1.78985 16.2459 
2.62878 1.79671 16.2459 
2.62878 1.80357 16.2459 
2.62878 1.81043 16.2459 
2.62878 1.81728 16.2459 
2.62878 1.82414 16.2459 
2.62878 1.831 16.2459 
2.62878 1.83786 16.2459 
2.62878 1.84471 16.2459 
2.62878 1.85157 16.2459 
2.62878 1.85843 16.2459 
2.63714 1.89772 16.2294 
2.63714 1.90457 16.2294 
2.63714 1.91142 16.2294 
2.63714 1.91827 16.2294 
2.63714 1.92512 16.2294 
2.63714 1.93197 16.2294 
2.64548 1.93693 16.2128 
2.63714 1.93882 16.2294 
2.64548 1.94377 16.2128 
2.63714 1.94567 16.2294 
2.64548 1.95062 16.2128 
2.63714 1.95253 16.2294 
2.64548 1.95746 16.2128 
2.64548 1.9643 16.2128 
2.64548 1.97115 16.2128 
2.64548 1.97799 16.2128 
2.64548 1.98484 16.2128 
2.64548 1.99168 16.2128 
2.86302 1.29783 15.7432 
2.82533 1.33078 15.8226 
2.81775 1.33205 15.8386 
2.78727 1.35733 15.9028 
2.77195 1.3734 15.9351 
2.76427 1.38146 15.9513 
2.74885 1.39763 15.9838 
2.74113 1.40574 16.0001 
2.72562 1.422 16.0327 
2.72562 1.42877 16.0327 
2.71006 1.44511 16.0655 
2.70226 1.45331 16.082 
2.70226 1.4601 16.082 
2.69444 1.46151 16.0985 
2.69444 1.46831 16.0985 
2.68661 1.47654 16.115 
2.68661 1.48335 16.115 
2.68661 1.49015 16.115 
2.67876 1.4916 16.1315 
2.67876 1.49841 16.1315 
2.67089 1.51351 16.1481 
2.67089 1.52033 16.1481 
2.64721 1.57948 16.198 
2.63928 1.6084 16.2147 
2.63928 1.61525 16.2147 
2.62338 1.74871 16.2482 
2.62338 1.75557 16.2482 
2.62338 1.76242 16.2482 
2.62338 1.76928 16.2482 
2.62338 1.77614 16.2482 
2.62338 1.783 16.2482 
2.62338 1.78985 16.2482 
2.62338 1.79671 16.2482 
2.62338 1.80357 16.2482 
2.62338 1.81043 16.2482 
2.62338 1.81728 16.2482 
2.62338 1.82414 16.2482 
2.62338 1.831 16.2482 
2.62338 1.83786 16.2482 
2.62338 1.84471 16.2482 
2.62338 1.85157 16.2482 
2.62338 1.85843 16.2482 
2.63134 1.86346 16.2314 
2.63134 1.87031 16.2314 
2.63134 1.87716 16.2314 
2.63134 1.88402 16.2314 
2.63134 1.89087 16.2314 
2.63134 1.89772 16.2314 
2.63134 1.90457 16.2314 
2.63134 1.91142 16.2314 
2.63134 1.91827 16.2314 
2.63134 1.92512 16.2314 
2.63928 1.93008 16.2147 
2.63134 1.93197 16.2314 
2.63928 1.93693 16.2147 
2.63134 1.93882 16.2314 
2.63928 1.94377 16.2147 
2.63134 1.94567 16.2314 
2.63928 1.95062 16.2147 
2.63134 1.95253 16.2314 
2.63928 1.95746 16.2147 
2.63928 1.9643 16.2147 
2.63928 1.97799 16.2147 
2.63928 1.98484 16.2147 
2.64721 1.98974 16.198 
2.63928 1.99168 16.2147 
2.64721 1.99657 16.198 
2.63928 1.99853 16.2147 
2.85252 1.28995 15.724 
2.85252 1.2966 15.724 
2.8454 1.29783 15.74 
2.83828 1.30573 15.756 
2.77354 1.35733 15.9014 
2.759 1.3734 15.934 
2.73709 1.39088 15.9833 
2.73709 1.39763 15.9833 
2.72975 1.40574 15.9997 
2.72241 1.41386 16.0162 
2.71505 1.422 16.0328 
2.70028 1.43833 16.0659 
2.70028 1.44511 16.0659 
2.69288 1.45331 16.0825 
2.69288 1.4601 16.0825 
2.68546 1.46151 16.0992 
2.68546 1.46831 16.0992 
2.67803 1.46974 16.1159 
2.67803 1.47654 16.1159 
2.67803 1.48335 16.1159 
2.67803 1.49015 16.1159 
2.67058 1.4916 16.1326 
2.67058 1.49841 16.1326 
2.67058 1.50522 16.1326 
2.65564 1.54228 16.1662 
2.64815 1.55745 16.183 
2.64065 1.58632 16.1999 
2.63313 1.63578 16.2167 
2.62559 1.66478 16.2337 
2.62559 1.67164 16.2337 
2.61804 1.74185 16.2506 
2.61804 1.74871 16.2506 
2.61804 1.75557 16.2506 
2.61804 1.76242 16.2506 
2.61804 1.76928 16.2506 
2.61804 1.77614 16.2506 
2.61804 1.783 16.2506 
2.61804 1.78985 16.2506 
2.61804 1.79671 16.2506 
2.61804 1.80357 16.2506 
2.61804 1.81043 16.2506 
2.61804 1.81728 16.2506 
2.61804 1.82414 16.2506 
2.61804 1.831 16.2506 
2.61804 1.83786 16.2506 
2.61804 1.84471 16.2506 
2.61804 1.85157 16.2506 
2.61804 1.85843 16.2506 
2.62559 1.86346 16.2337 
2.62559 1.87031 16.2337 
2.62559 1.87716 16.2337 
2.62559 1.88402 16.2337 
2.62559 1.89087 16.2337 
2.62559 1.89772 16.2337 
2.62559 1.90457 16.2337 
2.62559 1.91142 16.2337 
2.62559 1.91827 16.2337 
2.62559 1.92512 16.2337 
2.63313 1.93008 16.2167 
2.62559 1.93197 16.2337 
2.63313 1.93693 16.2167 
2.62559 1.93882 16.2337 
2.63313 1.94377 16.2167 
2.63313 1.95062 16.2167 
2.63313 1.95746 16.2167 
2.63313 1.9643 16.2167 
2.63313 1.97799 16.2167 
2.63313 1.98484 16.2167 
2.63313 1.99168 16.2167 
2.64065 1.99657 16.1999 
2.64065 2.00341 16.1999 
2.64065 2.01025 16.1999 
2.83444 1.28995 15.721 
2.83444 1.2966 15.721 
2.82772 1.29783 15.7372 
2.82098 1.30573 15.7533 
2.75977 1.35733 15.9003 
2.73914 1.37472 15.9498 
2.73914 1.38146 15.9498 
2.72531 1.39088 15.983 
2.72531 1.39763 15.983 
2.71838 1.40574 15.9996 
2.71143 1.4071 16.0163 
2.71143 1.41386 16.0163 
2.70447 1.422 16.033 
2.70447 1.42877 16.033 
2.69051 1.43833 16.0665 
2.69051 1.44511 16.0665 
2.68351 1.45331 16.0833 
2.68351 1.4601 16.0833 
2.6765 1.46151 16.1002 
2.6765 1.46831 16.1002 
2.6765 1.47511 16.1002 
2.66947 1.47654 16.117 
2.66947 1.48335 16.117 
2.66947 1.49015 16.117 
2.66243 1.49841 16.1339 
2.66243 1.50522 16.1339 
2.65538 1.52033 16.1509 
2.65538 1.52714 16.1509 
2.65538 1.53396 16.1509 
2.64831 1.54228 16.1678 
2.64831 1.5491 16.1678 
2.64123 1.55745 16.1848 
2.62702 1.62894 16.2189 
2.62702 1.63578 16.2189 
2.62702 1.64262 16.2189 
2.61276 1.73499 16.2532 
2.61276 1.74185 16.2532 
2.61276 1.74871 16.2532 
2.61276 1.75557 16.2532 
2.61276 1.76242 16.2532 
2.61276 1.76928 16.2532 
2.61276 1.77614 16.2532 
2.61276 1.783 16.2532 
2.61276 1.78985 16.2532 
2.61276 1.79671 16.2532 
2.61276 1.80357 16.2532 
2.61276 1.81043 16.2532 
2.61276 1.81728 16.2532 
2.61276 1.82414 16.2532 
2.6199 1.84291 16.236 
2.6199 1.84976 16.236 
2.6199 1.85661 16.236 
2.6199 1.86346 16.236 
2.6199 1.87031 16.236 
2.6199 1.87716 16.236 
2.6199 1.88402 16.236 
2.6199 1.89087 16.236 
2.62702 1.90271 16.2189 
2.62702 1.90955 16.2189 
2.62702 1.91639 16.2189 
2.6199 1.91827 16.236 
2.62702 1.92324 16.2189 
2.6199 1.92512 16.236 
2.62702 1.93008 16.2189 
2.6199 1.93197 16.236 
2.62702 1.93693 16.2189 
2.6199 1.93882 16.236 
2.62702 1.94377 16.2189 
2.62702 1.95062 16.2189 
2.62702 1.95746 16.2189 
2.62702 1.9643 16.2189 
2.62702 1.97115 16.2189 
2.62702 1.97799 16.2189 
2.62702 1.98484 16.2189 
2.63413 1.99657 16.2019 
2.63413 2.00341 16.2019 
2.82262 1.28873 15.7022 
2.8163 1.28995 15.7185 
2.8163 1.2966 15.7185 
2.80997 1.29783 15.7348 
2.80362 1.30573 15.7511 
2.74599 1.35733 15.8995 
2.73304 1.36667 15.9328 
2.73304 1.3734 15.9328 
2.72655 1.37472 15.9495 
2.72655 1.38146 15.9495 
2.72005 1.38279 15.9662 
2.72005 1.38954 15.9662 
2.71353 1.39088 15.983 
2.71353 1.39763 15.983 
2.707 1.39898 15.9998 
2.707 1.40574 15.9998 
2.70046 1.4071 16.0167 
2.70046 1.41386 16.0167 
2.70046 1.42063 16.0167 
2.69391 1.422 16.0335 
2.69391 1.42877 16.0335 
2.68734 1.43016 16.0504 
2.68734 1.43693 16.0504 
2.68076 1.43833 16.0674 
2.68076 1.44511 16.0674 
2.68076 1.4519 16.0674 
2.67417 1.45331 16.0843 
2.67417 1.4601 16.0843 
2.66757 1.46151 16.1013 
2.66757 1.46831 16.1013 
2.66757 1.47511 16.1013 
2.66095 1.49015 16.1184 
2.66095 1.49696 16.1184 
2.65432 1.49841 16.1354 
2.65432 1.50522 16.1354 
2.65432 1.51204 16.1354 
2.65432 1.51885 16.1354 
2.64768 1.52033 16.1525 
2.64102 1.54228 16.1697 
2.64102 1.5491 16.1697 
2.62767 1.60683 16.204 
2.62767 1.61367 16.204 
2.62097 1.65631 16.2213 
2.61426 1.68534 16.2385 
2.61426 1.69219 16.2385 
2.61426 1.71274 16.2385 
2.61426 1.71959 16.2385 
2.61426 1.72644 16.2385 
2.61426 1.73329 16.2385 
2.60754 1.73499 16.2558 
2.61426 1.74015 16.2385 
2.60754 1.74185 16.2558 
2.61426 1.747 16.2385 
2.60754 1.74871 16.2558 
2.61426 1.75385 16.2385 
2.60754 1.75557 16.2558 
2.61426 1.7607 16.2385 
2.60754 1.76242 16.2558 
2.61426 1.76755 16.2385 
2.60754 1.76928 16.2558 
2.61426 1.7744 16.2385 
2.60754 1.77614 16.2558 
2.61426 1.78125 16.2385 
2.60754 1.783 16.2558 
2.60754 1.78985 16.2558 
2.62097 1.92324 16.2213 
2.62097 1.93008 16.2213 
2.62097 1.93693 16.2213 
2.62097 1.94377 16.2213 
2.62097 1.95062 16.2213 
2.62097 1.95746 16.2213 
2.62097 1.9643 16.2213 
2.62097 1.97799 16.2213 
2.62097 1.98484 16.2213 
2.62767 1.99657 16.204 
2.62767 2.00341 16.204 
2.80403 1.28873 15.7 
2.7981 1.28995 15.7164 
2.7981 1.2966 15.7164 
2.79217 1.29783 15.7328 
2.78622 1.30573 15.7493 
2.77429 1.31489 15.7824 
2.76831 1.31615 15.7989 
2.73218 1.35733 15.899 
2.72005 1.36667 15.9327 
2.72005 1.3734 15.9327 
2.71396 1.37472 15.9495 
2.71396 1.38146 15.9495 
2.70787 1.38279 15.9664 
2.70787 1.38954 15.9664 
2.70176 1.39088 15.9833 
2.70176 1.39763 15.9833 
2.69564 1.40574 16.0003 
2.6895 1.4071 16.0173 
2.6895 1.41386 16.0173 
2.68336 1.422 16.0343 
2.68336 1.42877 16.0343 
2.6772 1.43016 16.0514 
2.6772 1.43693 16.0514 
2.67104 1.43833 16.0684 
2.67104 1.44511 16.0684 
2.67104 1.4519 16.0684 
2.66486 1.45331 16.0856 
2.66486 1.4601 16.0856 
2.65866 1.46831 16.1027 
2.65866 1.47511 16.1027 
2.65866 1.48191 16.1027 
2.65246 1.48335 16.1199 
2.65246 1.49015 16.1199 
2.65246 1.49696 16.1199 
2.64624 1.49841 16.1371 
2.64624 1.50522 16.1371 
2.64624 1.51204 16.1371 
2.64624 1.51885 16.1371 
2.64002 1.52033 16.1544 
2.64002 1.52714 16.1544 
2.64002 1.53396 16.1544 
2.61498 1.65631 16.2237 
2.61498 1.66316 16.2237 
2.61498 1.67 16.2237 
2.60869 1.69219 16.2412 
2.60869 1.69904 16.2412 
2.60869 1.70589 16.2412 
2.60869 1.71274 16.2412 
2.60869 1.71959 16.2412 
2.60869 1.72644 16.2412 
2.60869 1.73329 16.2412 
2.60869 1.74015 16.2412 
2.60869 1.747 16.2412 
2.60239 1.74871 16.2586 
2.60869 1.75385 16.2412 
2.60239 1.75557 16.2586 
2.60869 1.7607 16.2412 
2.60239 1.76242 16.2586 
2.60869 1.76755 16.2412 
2.60239 1.76928 16.2586 
2.60869 1.7744 16.2412 
2.60239 1.77614 16.2586 
2.60869 1.78125 16.2412 
2.60239 1.783 16.2586 
2.60239 1.78985 16.2586 
2.60239 1.79671 16.2586 
2.60239 1.80357 16.2586 
2.60239 1.81043 16.2586 
2.60869 1.83606 16.2412 
2.60869 1.84291 16.2412 
2.60869 1.84976 16.2412 
2.61498 1.93693 16.2237 
2.61498 1.94377 16.2237 
2.61498 1.95062 16.2237 
2.61498 1.95746 16.2237 
2.61498 1.9643 16.2237 
2.61498 1.97115 16.2237 
2.78539 1.28873 15.6982 
2.77986 1.28995 15.7147 
2.77986 1.2966 15.7147 
2.77432 1.29783 15.7313 
2.76878 1.30573 15.7479 
2.76322 1.30697 15.7646 
2.75765 1.31489 15.7813 
2.70705 1.36667 15.9328 
2.70705 1.3734 15.9328 
2.70138 1.37472 15.9498 
2.70138 1.38146 15.9498 
2.69569 1.38279 15.9669 
2.69569 1.38954 15.9669 
2.68999 1.39088 15.9839 
2.68999 1.39763 15.9839 
2.68428 1.39898 16.001 
2.68999 1.40438 15.9839 
2.68428 1.40574 16.001 
2.67856 1.4071 16.0182 
2.67856 1.41386 16.0182 
2.67283 1.41523 16.0353 
2.67283 1.422 16.0353 
2.67283 1.42877 16.0353 
2.66709 1.43016 16.0525 
2.66709 1.43693 16.0525 
2.66134 1.43833 16.0698 
2.66134 1.44511 16.0698 
2.65557 1.44651 16.087 
2.66134 1.4519 16.0698 
2.65557 1.45331 16.087 
2.65557 1.4601 16.087 
2.6498 1.46831 16.1043 
2.6498 1.47511 16.1043 
2.64401 1.47654 16.1217 
2.6498 1.48191 16.1043 
2.64401 1.48335 16.1217 
2.64401 1.49015 16.1217 
2.64401 1.49696 16.1217 
2.63821 1.49841 16.139 
2.63821 1.50522 16.139 
2.63821 1.51204 16.139 
2.63821 1.51885 16.139 
2.63821 1.52566 16.139 
2.6324 1.52714 16.1564 
2.6324 1.53396 16.1564 
2.61491 1.62734 16.2088 
2.60905 1.67 16.2264 
2.60905 1.67685 16.2264 
2.60319 1.72644 16.2439 
2.60319 1.73329 16.2439 
2.60319 1.74015 16.2439 
2.60319 1.747 16.2439 
2.60319 1.75385 16.2439 
2.60319 1.7607 16.2439 
2.60319 1.76755 16.2439 
2.59731 1.76928 16.2615 
2.60319 1.7744 16.2439 
2.59731 1.77614 16.2615 
2.60319 1.78125 16.2439 
2.59731 1.783 16.2615 
2.60319 1.7881 16.2439 
2.59731 1.78985 16.2615 
2.60319 1.79495 16.2439 
2.59731 1.79671 16.2615 
2.60319 1.80865 16.2439 
2.60319 1.83606 16.2439 
2.60319 1.84291 16.2439 
2.60319 1.84976 16.2439 
2.60319 1.85661 16.2439 
2.60905 1.93008 16.2264 
2.60905 1.93693 16.2264 
2.60905 1.94377 16.2264 
2.60905 1.95062 16.2264 
2.60905 1.95746 16.2264 
2.60905 1.9643 16.2264 
2.60905 1.97115 16.2264 
2.60905 1.97799 16.2264 
2.76158 1.28995 15.7135 
2.76158 1.2966 15.7135 
2.75645 1.29783 15.7302 
2.75131 1.30573 15.747 
2.74099 1.31489 15.7806 
2.71502 1.34131 15.8651 
2.70456 1.35733 15.8991 
2.69932 1.35863 15.9162 
2.69407 1.36667 15.9333 
2.69407 1.3734 15.9333 
2.6888 1.37472 15.9504 
2.6888 1.38146 15.9504 
2.68353 1.38279 15.9676 
2.67825 1.38413 15.9848 
2.68353 1.38954 15.9676 
2.67825 1.39088 15.9848 
2.67295 1.39222 16.002 
2.68353 1.39628 15.9676 
2.67825 1.39763 15.9848 
2.67295 1.39898 16.002 
2.66765 1.40033 16.0193 
2.67295 1.40574 16.002 
2.66765 1.4071 16.0193 
2.66765 1.41386 16.0193 
2.66233 1.41523 16.0366 
2.66233 1.422 16.0366 
2.65701 1.42338 16.0539 
2.66233 1.42877 16.0366 
2.65701 1.43016 16.0539 
2.65701 1.43693 16.0539 
2.65167 1.43833 16.0713 
2.65167 1.44511 16.0713 
2.64633 1.44651 16.0887 
2.64633 1.45331 16.0887 
2.64097 1.45472 16.1061 
2.64633 1.4601 16.0887 
2.64097 1.46151 16.1061 
2.64097 1.46831 16.1061 
2.64097 1.47511 16.1061 
2.63561 1.47654 16.1236 
2.64097 1.48191 16.1061 
2.63561 1.48335 16.1236 
2.63561 1.49015 16.1236 
2.63561 1.49696 16.1236 
2.63023 1.49841 16.1411 
2.63561 1.50376 16.1236 
2.63023 1.50522 16.1411 
2.63023 1.51204 16.1411 
2.63023 1.51885 16.1411 
2.62484 1.52714 16.1586 
2.61944 1.55593 16.1762 
2.61944 1.56275 16.1762 
2.61404 1.58477 16.1938 
2.61404 1.5916 16.1938 
2.60862 1.61367 16.2115 
2.60862 1.62051 16.2115 
2.60862 1.62734 16.2115 
2.60862 1.63418 16.2115 
2.60862 1.64102 16.2115 
2.60319 1.69053 16.2291 
2.59775 1.71959 16.2468 
2.59775 1.72644 16.2468 
2.59775 1.73329 16.2468 
2.59775 1.75385 16.2468 
2.59775 1.7607 16.2468 
2.59775 1.76755 16.2468 
2.59775 1.7744 16.2468 
2.59775 1.78125 16.2468 
2.59775 1.80865 16.2468 
2.59775 1.81551 16.2468 
2.59775 1.82236 16.2468 
2.59775 1.82921 16.2468 
2.59775 1.89772 16.2468 
2.59775 1.90457 16.2468 
2.59775 1.91827 16.2468 
2.60319 1.92324 16.2291 
2.59775 1.92512 16.2468 
2.60319 1.93008 16.2291 
2.60319 1.93693 16.2291 
2.60319 1.94377 16.2291 
2.60319 1.95062 16.2291 
2.60319 1.95746 16.2291 
2.60319 1.9643 16.2291 
2.60319 1.97115 16.2291 
2.60319 1.97799 16.2291 
2.60319 1.98484 16.2291 
2.61944 2.07457 16.1762 
2.61944 2.0814 16.1762 
2.74328 1.28995 15.7128 
2.74328 1.2966 15.7128 
2.73855 1.29783 15.7296 
2.73382 1.30573 15.7465 
2.72431 1.31489 15.7803 
2.7004 1.34131 15.8654 
2.69558 1.3426 15.8825 
2.68594 1.35863 15.9169 
2.6811 1.36667 15.9341 
2.67625 1.36799 15.9514 
2.67625 1.37472 15.9514 
2.67625 1.38146 15.9514 
2.67139 1.38279 15.9686 
2.66652 1.38413 15.986 
2.67139 1.38954 15.9686 
2.66652 1.39088 15.986 
2.66165 1.39222 16.0033 
2.66652 1.39763 15.986 
2.66165 1.39898 16.0033 
2.65676 1.40033 16.0207 
2.66165 1.40574 16.0033 
2.65676 1.4071 16.0207 
2.65187 1.40846 16.0381 
2.65676 1.41386 16.0207 
2.65187 1.41523 16.0381 
2.65187 1.422 16.0381 
2.64696 1.42338 16.0556 
2.64696 1.43016 16.0556 
2.64205 1.43154 16.0731 
2.64696 1.43693 16.0556 
2.64205 1.43833 16.0731 
2.64205 1.44511 16.0731 
2.63713 1.44651 16.0906 
2.63713 1.45331 16.0906 
2.63713 1.4601 16.0906 
2.63219 1.46151 16.1082 
2.63219 1.46831 16.1082 
2.63219 1.47511 16.1082 
2.63219 1.48191 16.1082 
2.62725 1.48335 16.1258 
2.62725 1.49015 16.1258 
2.62725 1.49696 16.1258 
2.6223 1.49841 16.1434 
2.62725 1.50376 16.1258 
2.6223 1.50522 16.1434 
2.6223 1.51204 16.1434 
2.6223 1.51885 16.1434 
2.61734 1.52714 16.161 
2.61734 1.53396 16.161 
2.61237 1.5491 16.1787 
2.61237 1.55593 16.1787 
2.61237 1.56275 16.1787 
2.60738 1.57794 16.1965 
2.60738 1.59843 16.1965 
2.60738 1.60526 16.1965 
2.60239 1.62734 16.2142 
2.60239 1.63418 16.2142 
2.60239 1.64102 16.2142 
2.59739 1.68369 16.232 
2.59739 1.69053 16.232 
2.59238 1.72644 16.2499 
2.59238 1.73329 16.2499 
2.59238 1.74015 16.2499 
2.59238 1.747 16.2499 
2.59238 1.75385 16.2499 
2.59238 1.7607 16.2499 
2.59238 1.76755 16.2499 
2.59238 1.7744 16.2499 
2.59238 1.78125 16.2499 
2.59238 1.80865 16.2499 
2.59238 1.81551 16.2499 
2.59238 1.87716 16.2499 
2.59238 1.88402 16.2499 
2.59238 1.89087 16.2499 
2.59238 1.89772 16.2499 
2.59238 1.90457 16.2499 
2.59739 1.90955 16.232 
2.59238 1.91142 16.2499 
2.59739 1.91639 16.232 
2.59739 1.92324 16.232 
2.59739 1.93008 16.232 
2.59739 1.93693 16.232 
2.59739 1.94377 16.232 
2.59739 1.95062 16.232 
2.59739 1.97115 16.232 
2.59739 1.97799 16.232 
2.59739 1.98484 16.232 
2.61734 2.05892 16.161 
2.61734 2.06573 16.161 
2.61734 2.07255 16.161 
2.61734 2.07937 16.161 
2.61237 2.0814 16.1787 
2.61734 2.08619 16.161 
2.61237 2.08822 16.1787 
2.61734 2.093 16.161 
2.72497 1.28995 15.7124 
2.72497 1.2966 15.7124 
2.72065 1.29783 15.7294 
2.67257 1.35863 15.9179 
2.66815 1.35994 15.9352 
2.66815 1.36667 15.9352 
2.66372 1.36799 15.9526 
2.66372 1.37472 15.9526 
2.65928 1.37605 15.97 
2.66372 1.38146 15.9526 
2.65928 1.38279 15.97 
2.65483 1.38413 15.9874 
2.65038 1.38546 16.0049 
2.65928 1.38954 15.97 
2.65483 1.39088 15.9874 
2.65038 1.39222 16.0049 
2.65483 1.39763 15.9874 
2.65038 1.39898 16.0049 
2.64592 1.40033 16.0224 
2.65038 1.40574 16.0049 
2.64592 1.4071 16.0224 
2.64592 1.41386 16.0224 
2.64144 1.41523 16.0399 
2.64144 1.422 16.0399 
2.63696 1.42338 16.0575 
2.63696 1.43016 16.0575 
2.63247 1.43154 16.0751 
2.63696 1.43693 16.0575 
2.63247 1.43833 16.0751 
2.62797 1.43972 16.0927 
2.63247 1.44511 16.0751 
2.62797 1.44651 16.0927 
2.62797 1.45331 16.0927 
2.62347 1.45472 16.1104 
2.62797 1.4601 16.0927 
2.62347 1.46151 16.1104 
2.62797 1.46689 16.0927 
2.62347 1.46831 16.1104 
2.61895 1.46974 16.1281 
2.62347 1.47511 16.1104 
2.61895 1.47654 16.1281 
2.62347 1.48191 16.1104 
2.61895 1.48335 16.1281 
2.61895 1.49015 16.1281 
2.61895 1.49696 16.1281 
2.61442 1.49841 16.1459 
2.61895 1.50376 16.1281 
2.61442 1.50522 16.1459 
2.61442 1.51204 16.1459 
2.60989 1.52714 16.1636 
2.60989 1.53396 16.1636 
2.60989 1.54078 16.1636 
2.60535 1.5491 16.1814 
2.60535 1.55593 16.1814 
2.60535 1.56275 16.1814 
2.6008 1.59843 16.1993 
2.6008 1.60526 16.1993 
2.6008 1.61209 16.1993 
2.59624 1.64102 16.2172 
2.59167 1.68369 16.2351 
2.59167 1.69053 16.2351 
2.58709 1.73329 16.253 
2.58709 1.74015 16.253 
2.58709 1.747 16.253 
2.58709 1.75385 16.253 
2.58709 1.7607 16.253 
2.58709 1.76755 16.253 
2.58709 1.7744 16.253 
2.58709 1.80865 16.253 
2.58709 1.81551 16.253 
2.58709 1.82236 16.253 
2.58709 1.82921 16.253 
2.58709 1.83606 16.253 
2.58709 1.84291 16.253 
2.58709 1.84976 16.253 
2.58709 1.85661 16.253 
2.58709 1.86346 16.253 
2.58709 1.87031 16.253 
2.58709 1.87716 16.253 
2.58709 1.88402 16.253 
2.58709 1.89087 16.253 
2.59167 1.91639 16.2351 
2.59167 1.92324 16.2351 
2.59167 1.93008 16.2351 
2.59167 1.93693 16.2351 
2.59167 1.94377 16.2351 
2.59167 1.95062 16.2351 
2.59167 1.95746 16.2351 
2.59167 1.9643 16.2351 
2.59167 1.97115 16.2351 
2.59167 1.97799 16.2351 
2.59624 2.01709 16.2172 
2.60989 2.05892 16.1636 
2.60989 2.06573 16.1636 
2.60535 2.06775 16.1814 
2.60535 2.07457 16.1814 
2.60535 2.0814 16.1814 
2.60989 2.08619 16.1636 
2.60535 2.08822 16.1814 
2.60989 2.093 16.1636 
2.60535 2.09504 16.1814 
2.70665 1.2966 15.7125 
2.70274 1.29783 15.7296 
2.70274 1.30449 15.7296 
2.69882 1.30573 15.7467 
2.66721 1.3426 15.8844 
2.65923 1.35863 15.9192 
2.65523 1.35994 15.9366 
2.65523 1.36667 15.9366 
2.65122 1.36799 15.9541 
2.65122 1.37472 15.9541 
2.64721 1.37605 15.9716 
2.64721 1.38279 15.9716 
2.64318 1.38413 15.9891 
2.63915 1.38546 16.0067 
2.64318 1.39088 15.9891 
2.63915 1.39222 16.0067 
2.63915 1.39898 16.0067 
2.63511 1.40033 16.0243 
2.63511 1.4071 16.0243 
2.63106 1.40846 16.042 
2.63511 1.41386 16.0243 
2.63106 1.41523 16.042 
2.63106 1.422 16.042 
2.62701 1.42338 16.0596 
2.62701 1.43016 16.0596 
2.62295 1.43154 16.0773 
2.62295 1.43833 16.0773 
2.61888 1.43972 16.0951 
2.62295 1.44511 16.0773 
2.61888 1.44651 16.0951 
2.61888 1.45331 16.0951 
2.6148 1.45472 16.1129 
2.61888 1.4601 16.0951 
2.6148 1.46151 16.1129 
2.61888 1.46689 16.0951 
2.6148 1.46831 16.1129 
2.61071 1.46974 16.1307 
2.6148 1.47511 16.1129 
2.61071 1.47654 16.1307 
2.6148 1.48191 16.1129 
2.61071 1.48335 16.1307 
2.6148 1.48871 16.1129 
2.61071 1.49015 16.1307 
2.61071 1.49696 16.1307 
2.60661 1.49841 16.1485 
2.60661 1.50522 16.1485 
2.60661 1.51204 16.1485 
2.60661 1.51885 16.1485 
2.60251 1.52033 16.1664 
2.60251 1.52714 16.1664 
2.60251 1.53396 16.1664 
2.60251 1.54078 16.1664 
2.5984 1.5491 16.1843 
2.5984 1.55593 16.1843 
2.5984 1.56275 16.1843 
2.59015 1.64102 16.2202 
2.59015 1.64786 16.2202 
2.58602 1.68369 16.2383 
2.58602 1.69053 16.2383 
2.58602 1.69738 16.2383 
2.58602 1.70422 16.2383 
2.58602 1.71107 16.2383 
2.58188 1.72644 16.2563 
2.58188 1.73329 16.2563 
2.58188 1.74015 16.2563 
2.58188 1.747 16.2563 
2.58188 1.75385 16.2563 
2.58188 1.7607 16.2563 
2.58188 1.76755 16.2563 
2.58188 1.80865 16.2563 
2.58188 1.81551 16.2563 
2.58188 1.82236 16.2563 
2.58188 1.82921 16.2563 
2.58188 1.83606 16.2563 
2.58188 1.84291 16.2563 
2.58188 1.84976 16.2563 
2.58188 1.85661 16.2563 
2.58188 1.86346 16.2563 
2.58188 1.87031 16.2563 
2.58188 1.87716 16.2563 
2.58188 1.88402 16.2563 
2.58188 1.89087 16.2563 
2.58188 1.89772 16.2563 
2.58188 1.90457 16.2563 
2.58602 1.91639 16.2383 
2.58602 1.92324 16.2383 
2.58602 1.93008 16.2383 
2.58602 1.93693 16.2383 
2.58602 1.94377 16.2383 
2.58602 1.95062 16.2383 
2.58602 1.95746 16.2383 
2.58602 1.9643 16.2383 
2.59015 1.96922 16.2202 
2.58602 1.97115 16.2383 
2.58602 1.97799 16.2383 
2.58602 1.98484 16.2383 
2.59015 2.01709 16.2202 
2.59428 2.02195 16.2023 
2.59428 2.02878 16.2023 
2.60251 2.05892 16.1664 
2.60251 2.06573 16.1664 
2.5984 2.06775 16.1843 
2.60251 2.07937 16.1664 
2.60251 2.08619 16.1664 
2.5984 2.08822 16.1843 
2.60251 2.093 16.1664 
2.5984 2.09504 16.1843 
2.69183 1.29537 15.696 
2.68834 1.2966 15.7131 
2.68485 1.29783 15.7302 
2.68134 1.30573 15.7474 
2.65307 1.3426 15.8859 
2.64593 1.35863 15.9208 
2.64235 1.35994 15.9384 
2.63877 1.36799 15.9559 
2.63877 1.37472 15.9559 
2.63518 1.37605 15.9735 
2.63158 1.37738 15.9912 
2.63518 1.38279 15.9735 
2.63158 1.38413 15.9912 
2.62797 1.38546 16.0088 
2.63158 1.39088 15.9912 
2.62797 1.39222 16.0088 
2.62436 1.39357 16.0265 
2.62797 1.39898 16.0088 
2.62436 1.40033 16.0265 
2.62436 1.4071 16.0265 
2.62074 1.40846 16.0442 
2.62074 1.41523 16.0442 
2.61711 1.4166 16.062 
2.62074 1.422 16.0442 
2.61711 1.42338 16.062 
2.61348 1.42476 16.0798 
2.61711 1.43016 16.062 
2.61348 1.43154 16.0798 
2.61348 1.43833 16.0798 
2.60984 1.43972 16.0976 
2.60984 1.44651 16.0976 
2.60619 1.44792 16.1155 
2.60984 1.45331 16.0976 
2.60619 1.45472 16.1155 
2.60984 1.4601 16.0976 
2.60619 1.46151 16.1155 
2.60984 1.46689 16.0976 
2.60619 1.46831 16.1155 
2.60253 1.46974 16.1334 
2.60619 1.47511 16.1155 
2.60253 1.47654 16.1334 
2.60619 1.48191 16.1155 
2.60253 1.48335 16.1334 
2.60253 1.49015 16.1334 
2.60253 1.49696 16.1334 
2.59887 1.50522 16.1514 
2.59887 1.51204 16.1514 
2.59887 1.51885 16.1514 
2.5952 1.52714 16.1693 
2.5952 1.53396 16.1693 
2.5952 1.54078 16.1693 
2.59152 1.55593 16.1873 
2.58784 1.58477 16.2054 
2.58415 1.62734 16.2235 
2.58415 1.64102 16.2235 
2.58415 1.64786 16.2235 
2.58045 1.68369 16.2416 
2.58045 1.69053 16.2416 
2.58045 1.69738 16.2416 
2.58045 1.70422 16.2416 
2.57674 1.73329 16.2597 
2.57674 1.74015 16.2597 
2.57674 1.747 16.2597 
2.57674 1.75385 16.2597 
2.57674 1.7607 16.2597 
2.57674 1.76755 16.2597 
2.57674 1.7744 16.2597 
2.57674 1.78125 16.2597 
2.57674 1.7881 16.2597 
2.57674 1.79495 16.2597 
2.57674 1.8018 16.2597 
2.57674 1.81551 16.2597 
2.57674 1.82236 16.2597 
2.57674 1.82921 16.2597 
2.57674 1.83606 16.2597 
2.57674 1.84291 16.2597 
2.57674 1.84976 16.2597 
2.57674 1.85661 16.2597 
2.57674 1.86346 16.2597 
2.57674 1.87031 16.2597 
2.57674 1.87716 16.2597 
2.57674 1.88402 16.2597 
2.57674 1.89087 16.2597 
2.57674 1.89772 16.2597 
2.57674 1.90457 16.2597 
2.58045 1.93693 16.2416 
2.58045 1.94377 16.2416 
2.58045 1.95062 16.2416 
2.58045 1.95746 16.2416 
2.58045 1.9643 16.2416 
2.58045 1.97115 16.2416 
2.58045 1.97799 16.2416 
2.58415 1.99657 16.2235 
2.58415 2.00341 16.2235 
2.58415 2.01025 16.2235 
2.58415 2.01709 16.2235 
2.5952 2.05892 16.1693 
2.5952 2.06573 16.1693 
2.5952 2.07255 16.1693 
2.5952 2.07937 16.1693 
2.5952 2.08619 16.1693 
2.59152 2.08822 16.1873 
2.5952 2.093 16.1693 
2.59152 2.09504 16.1873 
2.67313 1.29537 15.6969 
2.67005 1.2966 15.7141 
2.66697 1.29783 15.7313 
2.66697 1.30449 15.7313 
2.66388 1.30573 15.7486 
2.63896 1.3426 15.8877 
2.62952 1.35994 15.9404 
2.62636 1.36799 15.9581 
2.62636 1.37472 15.9581 
2.62319 1.37605 15.9757 
2.62002 1.37738 15.9934 
2.62319 1.38279 15.9757 
2.62002 1.38413 15.9934 
2.61684 1.38546 16.0112 
2.62002 1.39088 15.9934 
2.61684 1.39222 16.0112 
2.61366 1.39357 16.029 
2.61684 1.39898 16.0112 
2.61366 1.40033 16.029 
2.61047 1.40169 16.0468 
2.61366 1.4071 16.029 
2.61047 1.40846 16.0468 
2.61047 1.41523 16.0468 
2.60727 1.4166 16.0646 
2.60727 1.42338 16.0646 
2.60407 1.42476 16.0825 
2.60727 1.43016 16.0646 
2.60407 1.43154 16.0825 
2.60407 1.43833 16.0825 
2.60086 1.43972 16.1004 
2.60086 1.44651 16.1004 
2.59764 1.44792 16.1184 
2.60086 1.45331 16.1004 
2.59764 1.45472 16.1184 
2.60086 1.4601 16.1004 
2.59764 1.46151 16.1184 
2.60086 1.46689 16.1004 
2.59764 1.46831 16.1184 
2.59442 1.46974 16.1364 
2.59764 1.47511 16.1184 
2.59442 1.47654 16.1364 
2.59442 1.48335 16.1364 
2.59442 1.49015 16.1364 
2.59119 1.4916 16.1544 
2.59442 1.49696 16.1364 
2.59119 1.49841 16.1544 
2.59119 1.50522 16.1544 
2.59119 1.51204 16.1544 
2.59119 1.51885 16.1544 
2.58796 1.52714 16.1725 
2.58796 1.53396 16.1725 
2.58796 1.54078 16.1725 
2.58472 1.5491 16.1905 
2.58472 1.55593 16.1905 
2.58472 1.56275 16.1905 
2.58472 1.56958 16.1905 
2.58147 1.57794 16.2087 
2.58147 1.58477 16.2087 
2.58147 1.5916 16.2087 
2.58147 1.59843 16.2087 
2.58147 1.60526 16.2087 
2.57822 1.61367 16.2268 
2.57822 1.62051 16.2268 
2.57822 1.62734 16.2268 
2.57822 1.63418 16.2268 
2.57822 1.64102 16.2268 
2.57822 1.64786 16.2268 
2.57496 1.68369 16.245 
2.57496 1.69053 16.245 
2.57496 1.70422 16.245 
2.57496 1.71107 16.245 
2.5717 1.73329 16.2633 
2.5717 1.74015 16.2633 
2.5717 1.747 16.2633 
2.5717 1.75385 16.2633 
2.5717 1.7607 16.2633 
2.5717 1.76755 16.2633 
2.5717 1.7744 16.2633 
2.5717 1.80865 16.2633 
2.5717 1.81551 16.2633 
2.5717 1.82236 16.2633 
2.5717 1.82921 16.2633 
2.5717 1.83606 16.2633 
2.5717 1.84291 16.2633 
