VERSION .7
FIELDS x y z
SIZE 4 4 4
TYPE F F F
COUNT 1 1 1
WIDTH 1944
HEIGHT 1
VIEWPOINT 0 0 0 1 0 0 0
POINTS 1944
DATA ascii
3.0499 2.1372 17.9616 
3.01957 2.14037 17.9709 
2.98914 2.14355 17.9803 
2.95863 2.14675 17.9897 
3.17034 2.13492 17.9244 
3.14037 2.13807 17.9336 
3.1103 2.14123 17.9429 
3.08014 2.1444 17.9522 
3.0499 2.14757 17.9616 
3.01957 2.15076 17.9709 
2.98914 2.15396 17.9803 
2.95863 2.15717 17.9897 
3.14037 2.1484 17.9336 
3.1103 2.15157 17.9429 
3.08014 2.15476 17.9522 
3.0499 2.15795 17.9616 
3.01957 2.16115 17.9709 
2.98914 2.16437 17.9803 
2.95863 2.16759 17.9897 
2.92802 2.17082 17.9991 
2.89732 2.17406 18.0086 
3.1103 2.16192 17.9429 
3.08014 2.16512 17.9522 
3.0499 2.16832 17.9616 
3.01957 2.17154 17.9709 
2.98914 2.17477 17.9803 
2.95863 2.17801 17.9897 
2.92802 2.18126 17.9991 
2.89732 2.18451 18.0086 
2.86653 2.18778 18.0181 
2.83565 2.19106 18.0276 
2.80468 2.19434 18.0372 
2.77361 2.19764 18.0468 
2.74245 2.20094 18.0564 
2.71119 2.20426 18.066 
2.86653 2.19825 18.0181 
2.83565 2.20154 18.0276 
2.80468 2.20484 18.0372 
2.77361 2.20815 18.0468 
2.74245 2.21148 18.0564 
2.71119 2.21481 18.066 
2.67985 2.21815 18.0757 
2.58523 2.23885 18.1049 
2.5535 2.24225 18.1147 
2.52167 2.24566 18.1245 
2.48975 2.24907 18.1343 
2.5535 2.25287 18.1147 
2.52167 2.2563 18.1245 
2.48975 2.25973 18.1343 
2.45773 2.26318 18.1442 
2.42561 2.26664 18.1541 
2.39339 2.2701 18.1641 
2.36107 2.27358 18.174 
2.32866 2.27707 18.184 
2.29614 2.28057 18.1941 
2.39339 2.28081 18.1641 
2.36107 2.28431 18.174 
2.32866 2.28781 18.184 
2.29614 2.29133 18.1941 
2.26353 2.29485 18.2041 
2.23081 2.29839 18.2142 
2.09894 2.31265 18.2549 
2.29614 2.30208 18.1941 
2.26353 2.30563 18.2041 
2.23081 2.30918 18.2142 
2.198 2.31275 18.2243 
2.16508 2.31632 18.2345 
2.13206 2.31991 18.2447 
2.09894 2.32351 18.2549 
2.06571 2.32712 18.2651 
2.03238 2.33074 18.2754 
1.99895 2.33437 18.2857 
1.96541 2.33801 18.2961 
1.93177 2.34167 18.3064 
1.89802 2.34534 18.3169 
1.86417 2.34901 18.3273 
2.26353 2.3164 18.2041 
2.23081 2.31997 18.2142 
2.198 2.32355 18.2243 
2.16508 2.32715 18.2345 
2.13206 2.33075 18.2447 
2.09894 2.33437 18.2549 
2.06571 2.33799 18.2651 
2.03238 2.34163 18.2754 
1.99895 2.34528 18.2857 
1.96541 2.34894 18.2961 
1.93177 2.35261 18.3064 
1.89802 2.3563 18.3169 
1.86417 2.35999 18.3273 
1.83021 2.3637 18.3378 
1.79614 2.36741 18.3483 
2.16508 2.33797 18.2345 
2.13206 2.34159 18.2447 
2.09894 2.34522 18.2549 
2.06571 2.34887 18.2651 
2.03238 2.35252 18.2754 
1.99895 2.35619 18.2857 
1.96541 2.35987 18.2961 
1.93177 2.36355 18.3064 
1.89802 2.36725 18.3169 
1.86417 2.37097 18.3273 
1.83021 2.37469 18.3378 
1.79614 2.37843 18.3483 
1.76197 2.38217 18.3588 
1.72769 2.38593 18.3694 
2.09894 2.35608 18.2549 
2.06571 2.35974 18.2651 
2.03238 2.36341 18.2754 
1.99895 2.3671 18.2857 
1.96541 2.37079 18.2961 
1.93177 2.3745 18.3064 
1.89802 2.37821 18.3169 
1.86417 2.38194 18.3273 
1.83021 2.38568 18.3378 
1.79614 2.38944 18.3483 
1.76197 2.3932 18.3588 
1.72769 2.39698 18.3694 
1.99895 2.378 18.2857 
1.96541 2.38172 18.2961 
1.93177 2.38544 18.3064 
1.89802 2.38917 18.3169 
1.86417 2.39292 18.3273 
1.83021 2.39668 18.3378 
1.79614 2.40045 18.3483 
1.76197 2.40423 18.3588 
1.72769 2.40802 18.3694 
1.6933 2.41183 18.38 
1.6588 2.41565 18.3906 
1.96541 2.39264 18.2961 
1.93177 2.39638 18.3064 
1.89802 2.40013 18.3169 
1.86417 2.4039 18.3273 
1.83021 2.40767 18.3378 
1.79614 2.41146 18.3483 
1.76197 2.41526 18.3588 
1.72769 2.41907 18.3694 
1.6933 2.42289 18.38 
1.6588 2.42673 18.3906 
1.89802 2.41109 18.3169 
1.86417 2.41487 18.3273 
1.83021 2.41867 18.3378 
1.79614 2.42247 18.3483 
1.76197 2.42629 18.3588 
1.72769 2.43012 18.3694 
1.6933 2.43396 18.38 
1.6588 2.43781 18.3906 
1.62419 2.44167 18.4013 
1.89802 2.42205 18.3169 
1.86417 2.42585 18.3273 
1.83021 2.42966 18.3378 
1.79614 2.43348 18.3483 
1.76197 2.43732 18.3588 
1.72769 2.44116 18.3694 
1.6933 2.44502 18.38 
1.6588 2.44889 18.3906 
1.62419 2.45277 18.4013 
1.83021 2.44065 18.3378 
1.79614 2.44449 18.3483 
1.76197 2.44834 18.3588 
1.72769 2.45221 18.3694 
1.6933 2.45608 18.38 
1.6588 2.45997 18.3906 
1.62419 2.46387 18.4013 
1.83021 2.45165 18.3378 
1.79614 2.4555 18.3483 
1.76197 2.45937 18.3588 
1.72769 2.46325 18.3694 
1.6933 2.46715 18.38 
1.6588 2.47105 18.3906 
1.62419 2.47497 18.4013 
1.58948 2.4789 18.412 
1.76197 2.4704 18.3588 
1.72769 2.4743 18.3694 
1.6933 2.47821 18.38 
1.6588 2.48213 18.3906 
1.62419 2.48607 18.4013 
1.58948 2.49002 18.412 
1.55465 2.49398 18.4228 
1.51971 2.49795 18.4335 
1.76197 2.48143 18.3588 
1.72769 2.48535 18.3694 
1.6933 2.48927 18.38 
1.6588 2.49321 18.3906 
1.62419 2.49717 18.4013 
1.58948 2.50113 18.412 
1.55465 2.50511 18.4228 
1.51971 2.5091 18.4335 
1.6933 2.50034 18.38 
1.6588 2.5043 18.3906 
1.62419 2.50827 18.4013 
1.58948 2.51225 18.412 
1.55465 2.51625 18.4228 
1.51971 2.52025 18.4335 
1.6933 2.5114 18.38 
1.6588 2.51538 18.3906 
1.62419 2.51936 18.4013 
1.58948 2.52337 18.412 
1.55465 2.52738 18.4228 
1.51971 2.53141 18.4335 
1.48466 2.53544 18.4444 
1.44949 2.5395 18.4552 
1.6933 2.52246 18.38 
1.6588 2.52646 18.3906 
1.62419 2.53046 18.4013 
1.58948 2.53448 18.412 
1.55465 2.53851 18.4228 
1.51971 2.54256 18.4335 
1.48466 2.54661 18.4444 
1.44949 2.55068 18.4552 
1.41422 2.55477 18.4661 
1.37883 2.55886 18.477 
1.6588 2.53754 18.3906 
1.62419 2.54156 18.4013 
1.58948 2.5456 18.412 
1.55465 2.54965 18.4228 
1.51971 2.55371 18.4335 
1.48466 2.55778 18.4444 
1.44949 2.56187 18.4552 
1.41422 2.56597 18.4661 
1.37883 2.57009 18.477 
1.62419 2.55266 18.4013 
1.58948 2.55671 18.412 
1.55465 2.56078 18.4228 
1.51971 2.56486 18.4335 
1.48466 2.56895 18.4444 
1.44949 2.57306 18.4552 
1.41422 2.57718 18.4661 
1.37883 2.58131 18.477 
1.34333 2.58545 18.488 
1.30771 2.58961 18.4989 
1.62419 2.56376 18.4013 
1.58948 2.56783 18.412 
1.55465 2.57191 18.4228 
1.51971 2.57601 18.4335 
1.48466 2.58012 18.4444 
1.44949 2.58425 18.4552 
1.41422 2.58838 18.4661 
1.37883 2.59253 18.477 
1.34333 2.5967 18.488 
1.30771 2.60087 18.4989 
1.62419 2.57486 18.4013 
1.58948 2.57895 18.412 
1.55465 2.58305 18.4228 
1.51971 2.58716 18.4335 
1.48466 2.59129 18.4444 
1.44949 2.59543 18.4552 
1.41422 2.59959 18.4661 
1.37883 2.60375 18.477 
1.34333 2.60794 18.488 
1.30771 2.61213 18.4989 
1.27198 2.61634 18.51 
1.23613 2.62056 18.521 
1.62419 2.58596 18.4013 
1.58948 2.59006 18.412 
1.55465 2.59418 18.4228 
1.51971 2.59831 18.4335 
1.48466 2.60246 18.4444 
1.44949 2.60662 18.4552 
1.41422 2.61079 18.4661 
1.37883 2.61498 18.477 
1.34333 2.61918 18.488 
1.30771 2.62339 18.4989 
1.27198 2.62762 18.51 
1.23613 2.63186 18.521 
1.55465 2.60532 18.4228 
1.51971 2.60947 18.4335 
1.48466 2.61363 18.4444 
1.44949 2.61781 18.4552 
1.41422 2.622 18.4661 
1.37883 2.6262 18.477 
1.34333 2.63042 18.488 
1.30771 2.63465 18.4989 
1.27198 2.63889 18.51 
1.23613 2.64315 18.521 
1.55465 2.61645 18.4228 
1.51971 2.62062 18.4335 
1.48466 2.6248 18.4444 
1.44949 2.62899 18.4552 
1.41422 2.6332 18.4661 
1.37883 2.63742 18.477 
1.34333 2.64166 18.488 
1.30771 2.64591 18.4989 
1.27198 2.65017 18.51 
1.23613 2.65445 18.521 
1.48466 2.63597 18.4444 
1.44949 2.64018 18.4552 
1.41422 2.64441 18.4661 
1.37883 2.64865 18.477 
1.34333 2.6529 18.488 
1.30771 2.65717 18.4989 
1.27198 2.66145 18.51 
1.23613 2.66574 18.521 
1.20017 2.67005 18.5321 
1.48466 2.64714 18.4444 
1.44949 2.65137 18.4552 
1.41422 2.65561 18.4661 
1.37883 2.65987 18.477 
1.34333 2.66414 18.488 
1.30771 2.66843 18.4989 
1.27198 2.67273 18.51 
1.23613 2.67704 18.521 
1.20017 2.68137 18.5321 
1.16409 2.68571 18.5432 
1.48466 2.65831 18.4444 
1.44949 2.66256 18.4552 
1.41422 2.66682 18.4661 
1.37883 2.67109 18.477 
1.34333 2.67538 18.488 
1.30771 2.67969 18.4989 
1.27198 2.684 18.51 
1.23613 2.68833 18.521 
1.20017 2.69268 18.5321 
1.16409 2.69704 18.5432 
1.48466 2.66948 18.4444 
1.44949 2.67374 18.4552 
1.41422 2.67802 18.4661 
1.37883 2.68232 18.477 
1.34333 2.68662 18.488 
1.30771 2.69095 18.4989 
1.27198 2.69528 18.51 
1.23613 2.69963 18.521 
1.20017 2.70399 18.5321 
1.16409 2.70837 18.5432 
1.41422 2.68923 18.4661 
1.37883 2.69354 18.477 
1.34333 2.69787 18.488 
1.30771 2.7022 18.4989 
1.27198 2.70656 18.51 
1.23613 2.71093 18.521 
1.20017 2.71531 18.5321 
1.16409 2.7197 18.5432 
1.41422 2.70043 18.4661 
1.37883 2.70476 18.477 
1.34333 2.70911 18.488 
1.30771 2.71346 18.4989 
1.27198 2.71784 18.51 
1.23613 2.72222 18.521 
1.20017 2.72662 18.5321 
1.16409 2.73103 18.5432 
1.41422 2.71164 18.4661 
1.37883 2.71599 18.477 
1.34333 2.72035 18.488 
1.30771 2.72472 18.4989 
1.27198 2.72911 18.51 
1.23613 2.73352 18.521 
1.20017 2.73793 18.5321 
1.16409 2.74237 18.5432 
1.41422 2.72284 18.4661 
1.37883 2.72721 18.477 
1.34333 2.73159 18.488 
1.30771 2.73598 18.4989 
1.27198 2.74039 18.51 
1.23613 2.74481 18.521 
1.20017 2.74925 18.5321 
1.16409 2.7537 18.5432 
1.34333 2.74283 18.488 
1.30771 2.74724 18.4989 
1.27198 2.75167 18.51 
1.23613 2.75611 18.521 
1.20017 2.76056 18.5321 
1.16409 2.76503 18.5432 
1.34333 2.75407 18.488 
1.30771 2.7585 18.4989 
1.27198 2.76294 18.51 
1.23613 2.7674 18.521 
1.20017 2.77188 18.5321 
1.16409 2.77636 18.5432 
1.34333 2.76531 18.488 
1.30771 2.76976 18.4989 
1.27198 2.77422 18.51 
1.23613 2.7787 18.521 
1.20017 2.78319 18.5321 
1.16409 2.7877 18.5432 
1.34333 2.77655 18.488 
1.30771 2.78102 18.4989 
1.27198 2.7855 18.51 
1.23613 2.78999 18.521 
1.20017 2.7945 18.5321 
1.16409 2.79903 18.5432 
1.1279 2.80357 18.5544 
1.34333 2.78779 18.488 
1.30771 2.79228 18.4989 
1.27198 2.79678 18.51 
1.23613 2.80129 18.521 
1.20017 2.80582 18.5321 
1.16409 2.81036 18.5432 
1.34333 2.79904 18.488 
1.30771 2.80354 18.4989 
1.27198 2.80805 18.51 
1.23613 2.81259 18.521 
1.20017 2.81713 18.5321 
1.16409 2.82169 18.5432 
1.34333 2.81028 18.488 
1.30771 2.8148 18.4989 
1.27198 2.81933 18.51 
1.23613 2.82388 18.521 
1.20017 2.82844 18.5321 
1.16409 2.83302 18.5432 
1.1279 2.83762 18.5544 
1.34333 2.82152 18.488 
1.30771 2.82606 18.4989 
1.27198 2.83061 18.51 
1.23613 2.83518 18.521 
1.20017 2.83976 18.5321 
1.16409 2.84436 18.5432 
1.1279 2.84897 18.5544 
1.27198 2.84189 18.51 
1.23613 2.84647 18.521 
1.20017 2.85107 18.5321 
1.16409 2.85569 18.5432 
1.1279 2.86032 18.5544 
1.09158 2.86496 18.5656 
1.27198 2.85316 18.51 
1.23613 2.85777 18.521 
1.20017 2.86239 18.5321 
1.16409 2.86702 18.5432 
1.1279 2.87167 18.5544 
1.09158 2.87633 18.5656 
1.27198 2.86444 18.51 
1.23613 2.86906 18.521 
1.20017 2.8737 18.5321 
1.16409 2.87835 18.5432 
1.1279 2.88302 18.5544 
1.09158 2.8877 18.5656 
1.27198 2.87572 18.51 
1.23613 2.88036 18.521 
1.20017 2.88501 18.5321 
1.16409 2.88968 18.5432 
1.1279 2.89437 18.5544 
1.09158 2.89907 18.5656 
1.23613 2.89165 18.521 
1.20017 2.89633 18.5321 
1.16409 2.90102 18.5432 
1.1279 2.90572 18.5544 
1.09158 2.91044 18.5656 
1.05515 2.91517 18.5768 
1.23613 2.90295 18.521 
1.20017 2.90764 18.5321 
1.16409 2.91235 18.5432 
1.1279 2.91707 18.5544 
1.09158 2.92181 18.5656 
1.05515 2.92656 18.5768 
1.23613 2.91424 18.521 
1.20017 2.91896 18.5321 
1.16409 2.92368 18.5432 
1.1279 2.92842 18.5544 
1.09158 2.93318 18.5656 
1.20017 2.93027 18.5321 
1.16409 2.93501 18.5432 
1.1279 2.93977 18.5544 
1.09158 2.94455 18.5656 
1.20017 2.94158 18.5321 
1.16409 2.94634 18.5432 
1.1279 2.95112 18.5544 
1.09158 2.95592 18.5656 
1.05515 2.96072 18.5768 
1.20017 2.9529 18.5321 
1.16409 2.95768 18.5432 
1.1279 2.96247 18.5544 
1.09158 2.96728 18.5656 
1.05515 2.97211 18.5768 
1.20017 2.96421 18.5321 
1.16409 2.96901 18.5432 
1.1279 2.97382 18.5544 
1.09158 2.97865 18.5656 
1.05515 2.9835 18.5768 
1.20017 2.97552 18.5321 
1.16409 2.98034 18.5432 
1.1279 2.98517 18.5544 
1.09158 2.99002 18.5656 
1.05515 2.99489 18.5768 
1.16409 2.99167 18.5432 
1.1279 2.99652 18.5544 
1.09158 3.00139 18.5656 
1.16409 3.00301 18.5432 
1.1279 3.00787 18.5544 
1.09158 3.01276 18.5656 
1.16409 3.01434 18.5432 
1.1279 3.01922 18.5544 
1.09158 3.02413 18.5656 
1.16409 3.02567 18.5432 
1.1279 3.03058 18.5544 
1.09158 3.0355 18.5656 
1.16409 3.037 18.5432 
1.1279 3.04193 18.5544 
1.09158 3.04687 18.5656 
1.16409 3.04833 18.5432 
1.1279 3.05328 18.5544 
1.09158 3.05824 18.5656 
1.05515 3.06321 18.5768 
1.16409 3.05967 18.5432 
1.1279 3.06463 18.5544 
1.09158 3.0696 18.5656 
1.05515 3.0746 18.5768 
1.16409 3.071 18.5432 
1.1279 3.07598 18.5544 
1.09158 3.08097 18.5656 
1.05515 3.08599 18.5768 
1.16409 3.08233 18.5432 
1.1279 3.08733 18.5544 
1.09158 3.09234 18.5656 
1.05515 3.09737 18.5768 
1.0186 3.10242 18.5881 
1.16409 3.09366 18.5432 
1.1279 3.09868 18.5544 
1.09158 3.10371 18.5656 
1.05515 3.10876 18.5768 
1.0186 3.11383 18.5881 
1.20017 3.09998 18.5321 
1.16409 3.10499 18.5432 
1.1279 3.11003 18.5544 
1.09158 3.11508 18.5656 
1.05515 3.12015 18.5768 
1.20017 3.11129 18.5321 
1.16409 3.11633 18.5432 
1.1279 3.12138 18.5544 
1.09158 3.12645 18.5656 
1.05515 3.13153 18.5768 
1.20017 3.1226 18.5321 
1.16409 3.12766 18.5432 
1.1279 3.13273 18.5544 
1.09158 3.13782 18.5656 
1.05515 3.14292 18.5768 
1.20017 3.13392 18.5321 
1.16409 3.13899 18.5432 
1.1279 3.14408 18.5544 
1.09158 3.14919 18.5656 
1.05515 3.15431 18.5768 
1.0186 3.15945 18.5881 
1.20017 3.14523 18.5321 
1.16409 3.15032 18.5432 
1.1279 3.15543 18.5544 
1.09158 3.16056 18.5656 
1.05515 3.1657 18.5768 
1.20017 3.15654 18.5321 
1.16409 3.16165 18.5432 
1.1279 3.16678 18.5544 
1.09158 3.17192 18.5656 
1.05515 3.17708 18.5768 
1.20017 3.16786 18.5321 
1.16409 3.17299 18.5432 
1.1279 3.17813 18.5544 
1.09158 3.18329 18.5656 
1.05515 3.18847 18.5768 
1.0186 3.19367 18.5881 
1.20017 3.17917 18.5321 
1.16409 3.18432 18.5432 
1.1279 3.18948 18.5544 
1.09158 3.19466 18.5656 
1.05515 3.19986 18.5768 
1.0186 3.20507 18.5881 
1.20017 3.19049 18.5321 
1.16409 3.19565 18.5432 
1.1279 3.20083 18.5544 
1.09158 3.20603 18.5656 
1.05515 3.21125 18.5768 
1.0186 3.21648 18.5881 
1.20017 3.2018 18.5321 
1.16409 3.20698 18.5432 
1.1279 3.21218 18.5544 
1.09158 3.2174 18.5656 
1.05515 3.22263 18.5768 
1.0186 3.22789 18.5881 
1.20017 3.21311 18.5321 
1.16409 3.21831 18.5432 
1.1279 3.22353 18.5544 
1.09158 3.22877 18.5656 
1.05515 3.23402 18.5768 
1.0186 3.23929 18.5881 
1.20017 3.22443 18.5321 
1.16409 3.22965 18.5432 
1.1279 3.23488 18.5544 
1.09158 3.24014 18.5656 
1.05515 3.24541 18.5768 
1.0186 3.2507 18.5881 
1.20017 3.23574 18.5321 
1.16409 3.24098 18.5432 
1.1279 3.24623 18.5544 
1.09158 3.25151 18.5656 
1.05515 3.2568 18.5768 
1.0186 3.2621 18.5881 
1.20017 3.24705 18.5321 
1.16409 3.25231 18.5432 
1.1279 3.25758 18.5544 
1.09158 3.26288 18.5656 
1.05515 3.26818 18.5768 
1.0186 3.27351 18.5881 
-0.176679 3.44766 18.9568 
1.20017 3.25837 18.5321 
1.16409 3.26364 18.5432 
1.1279 3.26894 18.5544 
1.09158 3.27424 18.5656 
1.0186 3.28491 18.5881 
1.20017 3.26968 18.5321 
1.16409 3.27498 18.5432 
1.1279 3.28029 18.5544 
1.09158 3.28561 18.5656 
1.05515 3.29096 18.5768 
1.0186 3.29632 18.5881 
1.20017 3.281 18.5321 
1.16409 3.28631 18.5432 
1.1279 3.29164 18.5544 
1.09158 3.29698 18.5656 
1.05515 3.30235 18.5768 
1.0186 3.30773 18.5881 
1.20017 3.29231 18.5321 
1.16409 3.29764 18.5432 
1.1279 3.30299 18.5544 
1.09158 3.30835 18.5656 
1.05515 3.31373 18.5768 
1.0186 3.31913 18.5881 
1.20017 3.30362 18.5321 
1.16409 3.30897 18.5432 
1.1279 3.31434 18.5544 
1.09158 3.31972 18.5656 
1.05515 3.32512 18.5768 
1.20017 3.31494 18.5321 
1.16409 3.3203 18.5432 
1.1279 3.32569 18.5544 
1.09158 3.33109 18.5656 
1.05515 3.33651 18.5768 
1.20017 3.32625 18.5321 
1.16409 3.33164 18.5432 
1.1279 3.33704 18.5544 
1.09158 3.34246 18.5656 
1.05515 3.3479 18.5768 
1.20017 3.33756 18.5321 
1.16409 3.34297 18.5432 
1.1279 3.34839 18.5544 
1.09158 3.35383 18.5656 
1.05515 3.35928 18.5768 
1.20017 3.34888 18.5321 
1.16409 3.3543 18.5432 
1.1279 3.35974 18.5544 
1.09158 3.3652 18.5656 
1.20017 3.36019 18.5321 
1.16409 3.36563 18.5432 
1.1279 3.37109 18.5544 
1.09158 3.37656 18.5656 
1.20017 3.37151 18.5321 
1.16409 3.37696 18.5432 
1.1279 3.38244 18.5544 
1.09158 3.38793 18.5656 
1.20017 3.38282 18.5321 
1.16409 3.3883 18.5432 
1.1279 3.39379 18.5544 
1.09158 3.3993 18.5656 
1.20017 3.39413 18.5321 
1.16409 3.39963 18.5432 
1.1279 3.40514 18.5544 
1.09158 3.41067 18.5656 
1.23613 3.39995 18.521 
1.20017 3.40545 18.5321 
1.16409 3.41096 18.5432 
1.1279 3.41649 18.5544 
1.09158 3.42204 18.5656 
1.23613 3.41125 18.521 
1.20017 3.41676 18.5321 
1.16409 3.42229 18.5432 
1.1279 3.42784 18.5544 
1.09158 3.43341 18.5656 
1.23613 3.42254 18.521 
1.20017 3.42808 18.5321 
1.16409 3.43362 18.5432 
1.1279 3.43919 18.5544 
1.09158 3.44478 18.5656 
1.27198 3.42831 18.51 
1.23613 3.43384 18.521 
1.20017 3.43939 18.5321 
1.16409 3.44496 18.5432 
1.1279 3.45054 18.5544 
1.09158 3.45615 18.5656 
1.27198 3.43958 18.51 
1.23613 3.44513 18.521 
1.20017 3.4507 18.5321 
1.16409 3.45629 18.5432 
1.1279 3.46189 18.5544 
1.09158 3.46752 18.5656 
1.27198 3.45086 18.51 
1.23613 3.45643 18.521 
1.20017 3.46202 18.5321 
1.16409 3.46762 18.5432 
1.1279 3.47324 18.5544 
1.09158 3.47888 18.5656 
1.27198 3.46214 18.51 
1.23613 3.46773 18.521 
1.20017 3.47333 18.5321 
1.16409 3.47895 18.5432 
1.1279 3.48459 18.5544 
1.09158 3.49025 18.5656 
1.27198 3.47342 18.51 
1.23613 3.47902 18.521 
1.20017 3.48464 18.5321 
1.16409 3.49029 18.5432 
1.1279 3.49594 18.5544 
1.09158 3.50162 18.5656 
1.27198 3.48469 18.51 
1.23613 3.49032 18.521 
1.20017 3.49596 18.5321 
1.16409 3.50162 18.5432 
1.1279 3.5073 18.5544 
1.09158 3.51299 18.5656 
1.27198 3.49597 18.51 
1.23613 3.50161 18.521 
1.20017 3.50727 18.5321 
1.16409 3.51295 18.5432 
1.1279 3.51865 18.5544 
1.09158 3.52436 18.5656 
1.27198 3.50725 18.51 
1.23613 3.51291 18.521 
1.20017 3.51859 18.5321 
1.16409 3.52428 18.5432 
1.1279 3.53 18.5544 
1.30771 3.51287 18.4989 
1.27198 3.51853 18.51 
1.23613 3.5242 18.521 
1.20017 3.5299 18.5321 
1.16409 3.53561 18.5432 
1.30771 3.52413 18.4989 
1.27198 3.5298 18.51 
1.23613 3.5355 18.521 
1.20017 3.54121 18.5321 
1.16409 3.54695 18.5432 
1.34333 3.52971 18.488 
1.30771 3.53538 18.4989 
1.27198 3.54108 18.51 
1.23613 3.54679 18.521 
1.20017 3.55253 18.5321 
1.16409 3.55828 18.5432 
1.34333 3.54095 18.488 
1.30771 3.54664 18.4989 
1.27198 3.55236 18.51 
1.23613 3.55809 18.521 
1.20017 3.56384 18.5321 
1.16409 3.56961 18.5432 
1.34333 3.55219 18.488 
1.30771 3.5579 18.4989 
1.27198 3.56363 18.51 
1.23613 3.56939 18.521 
1.20017 3.57515 18.5321 
1.16409 3.58094 18.5432 
1.34333 3.56343 18.488 
1.30771 3.56916 18.4989 
1.27198 3.57491 18.51 
1.23613 3.58068 18.521 
1.20017 3.58647 18.5321 
1.34333 3.57467 18.488 
1.30771 3.58042 18.4989 
1.27198 3.58619 18.51 
1.23613 3.59198 18.521 
1.20017 3.59778 18.5321 
1.34333 3.58591 18.488 
1.30771 3.59168 18.4989 
1.27198 3.59747 18.51 
1.23613 3.60327 18.521 
1.20017 3.6091 18.5321 
1.41422 3.58564 18.4661 
1.37883 3.59139 18.477 
1.34333 3.59715 18.488 
1.30771 3.60294 18.4989 
1.27198 3.60874 18.51 
1.23613 3.61457 18.521 
1.20017 3.62041 18.5321 
1.41422 3.59684 18.4661 
1.37883 3.60261 18.477 
1.34333 3.60839 18.488 
1.30771 3.6142 18.4989 
1.27198 3.62002 18.51 
1.23613 3.62586 18.521 
1.41422 3.60805 18.4661 
1.37883 3.61383 18.477 
1.34333 3.61964 18.488 
1.30771 3.62546 18.4989 
1.27198 3.6313 18.51 
1.23613 3.63716 18.521 
1.41422 3.61925 18.4661 
1.37883 3.62506 18.477 
1.34333 3.63088 18.488 
1.30771 3.63672 18.4989 
1.27198 3.64258 18.51 
1.23613 3.64845 18.521 
1.41422 3.63046 18.4661 
1.37883 3.63628 18.477 
1.34333 3.64212 18.488 
1.30771 3.64798 18.4989 
1.27198 3.65385 18.51 
1.23613 3.65975 18.521 
1.41422 3.64166 18.4661 
1.37883 3.6475 18.477 
1.34333 3.65336 18.488 
1.30771 3.65924 18.4989 
1.27198 3.66513 18.51 
1.34333 3.6646 18.488 
1.44949 3.65822 18.4552 
1.41422 3.66407 18.4661 
1.37883 3.66995 18.477 
1.32853 1.06962 18.5841 
1.29323 1.07135 18.5965 
1.25783 1.07307 18.6088 
1.22231 1.07481 18.6213 
3.1979 2.08029 17.93 
3.22734 2.08751 17.9197 
3.1979 2.09058 17.93 
3.16838 2.09366 17.9403 
3.13877 2.09675 17.9507 
3.10907 2.09985 17.9611 
3.07928 2.10296 17.9715 
3.04941 2.10608 17.9819 
3.1979 2.10088 17.93 
3.16838 2.10398 17.9403 
3.13877 2.10708 17.9507 
3.10907 2.1102 17.9611 
3.07928 2.11332 17.9715 
3.04941 2.11645 17.9819 
3.01944 2.11959 17.9924 
2.98939 2.12274 18.0029 
3.16838 2.11429 17.9403 
3.13877 2.11741 17.9507 
3.10907 2.12054 17.9611 
3.07928 2.12368 17.9715 
3.04941 2.12683 17.9819 
3.01944 2.12998 17.9924 
2.98939 2.13315 18.0029 
2.95925 2.13632 18.0135 
3.16838 2.1246 17.9403 
3.13877 2.12774 17.9507 
3.10907 2.13088 17.9611 
3.07928 2.13404 17.9715 
3.04941 2.1372 17.9819 
3.01944 2.14037 17.9924 
2.98939 2.14355 18.0029 
2.95925 2.14675 18.0135 
2.92902 2.14995 18.0241 
3.16838 2.13492 17.9403 
3.13877 2.13807 17.9507 
3.10907 2.14123 17.9611 
3.07928 2.1444 17.9715 
3.04941 2.14757 17.9819 
3.01944 2.15076 17.9924 
2.98939 2.15396 18.0029 
2.95925 2.15717 18.0135 
2.92902 2.16038 18.0241 
2.8987 2.16361 18.0347 
3.07928 2.15476 17.9715 
3.04941 2.15795 17.9819 
3.01944 2.16115 17.9924 
2.98939 2.16437 18.0029 
2.95925 2.16759 18.0135 
2.92902 2.17082 18.0241 
2.8987 2.17406 18.0347 
2.86828 2.17731 18.0453 
2.83778 2.18057 18.056 
2.80718 2.18384 18.0667 
3.04941 2.16832 17.9819 
3.01944 2.17154 17.9924 
2.98939 2.17477 18.0029 
2.95925 2.17801 18.0135 
2.92902 2.18126 18.0241 
2.8987 2.18451 18.0347 
2.86828 2.18778 18.0453 
2.83778 2.19106 18.056 
2.80718 2.19434 18.0667 
2.7765 2.19764 18.0774 
2.71484 2.20426 18.099 
2.68388 2.21815 18.1099 
2.65282 2.2215 18.1207 
2.62167 2.22486 18.1316 
2.59042 2.22824 18.1426 
2.55908 2.23162 18.1535 
2.52764 2.23501 18.1645 
2.40093 2.2594 18.2089 
2.36901 2.26286 18.22 
1.94495 2.30884 18.3684 
1.91162 2.31246 18.3801 
1.87818 2.31608 18.3918 
2.36901 2.27358 18.22 
2.33699 2.27707 18.2312 
2.30487 2.28057 18.2425 
2.27266 2.28408 18.2537 
2.24034 2.2876 18.2651 
2.20792 2.29113 18.2764 
2.17541 2.29468 18.2878 
2.14279 2.29823 18.2992 
2.11007 2.30179 18.3106 
2.07726 2.30537 18.3221 
2.04434 2.30896 18.3336 
2.01131 2.31255 18.3452 
1.97819 2.31616 18.3568 
1.94495 2.31978 18.3684 
1.91162 2.32342 18.3801 
1.87818 2.32706 18.3918 
1.84464 2.33071 18.4035 
1.81099 2.33438 18.4153 
1.77723 2.33806 18.4271 
2.30487 2.29133 18.2425 
2.27266 2.29485 18.2537 
2.24034 2.29839 18.2651 
2.20792 2.30194 18.2764 
2.17541 2.3055 18.2878 
2.14279 2.30907 18.2992 
2.11007 2.31265 18.3106 
2.07726 2.31624 18.3221 
2.04434 2.31985 18.3336 
2.01131 2.32346 18.3452 
1.97819 2.32709 18.3568 
1.94495 2.33073 18.3684 
1.91162 2.33438 18.3801 
1.87818 2.33804 18.3918 
1.84464 2.34171 18.4035 
1.81099 2.34539 18.4153 
1.77723 2.34909 18.4271 
1.74337 2.35279 18.4389 
1.7094 2.35651 18.4508 
1.67533 2.36024 18.4628 
2.11007 2.32351 18.3106 
2.07726 2.32712 18.3221 
2.04434 2.33074 18.3336 
2.01131 2.33437 18.3452 
1.97819 2.33801 18.3568 
1.94495 2.34167 18.3684 
1.91162 2.34534 18.3801 
1.87818 2.34901 18.3918 
1.84464 2.3527 18.4035 
1.81099 2.3564 18.4153 
1.77723 2.36012 18.4271 
1.74337 2.36384 18.4389 
1.7094 2.36758 18.4508 
1.67533 2.37132 18.4628 
2.04434 2.34163 18.3336 
2.01131 2.34528 18.3452 
1.97819 2.34894 18.3568 
1.94495 2.35261 18.3684 
1.91162 2.3563 18.3801 
1.87818 2.35999 18.3918 
1.84464 2.3637 18.4035 
1.81099 2.36741 18.4153 
1.77723 2.37114 18.4271 
1.74337 2.37489 18.4389 
1.7094 2.37864 18.4508 
1.67533 2.38241 18.4628 
1.64114 2.38618 18.4747 
1.91162 2.36725 18.3801 
1.87818 2.37097 18.3918 
1.84464 2.37469 18.4035 
1.81099 2.37843 18.4153 
1.77723 2.38217 18.4271 
1.74337 2.38593 18.4389 
1.7094 2.3897 18.4508 
1.67533 2.39349 18.4628 
1.64114 2.39728 18.4747 
1.91162 2.37821 18.3801 
1.87818 2.38194 18.3918 
1.84464 2.38568 18.4035 
1.81099 2.38944 18.4153 
1.77723 2.3932 18.4271 
1.74337 2.39698 18.4389 
1.7094 2.40077 18.4508 
1.67533 2.40457 18.4628 
1.64114 2.40838 18.4747 
1.60685 2.4122 18.4867 
1.81099 2.40045 18.4153 
1.77723 2.40423 18.4271 
1.74337 2.40802 18.4389 
1.7094 2.41183 18.4508 
1.67533 2.41565 18.4628 
1.64114 2.41948 18.4747 
1.60685 2.42332 18.4867 
1.57244 2.42717 18.4988 
1.77723 2.41526 18.4271 
1.74337 2.41907 18.4389 
1.7094 2.42289 18.4508 
1.67533 2.42673 18.4628 
1.64114 2.43058 18.4747 
1.60685 2.43444 18.4867 
1.57244 2.43831 18.4988 
1.74337 2.43012 18.4389 
1.7094 2.43396 18.4508 
1.67533 2.43781 18.4628 
1.64114 2.44167 18.4747 
1.60685 2.44555 18.4867 
1.57244 2.44944 18.4988 
1.53793 2.45334 18.5108 
1.7094 2.44502 18.4508 
1.67533 2.44889 18.4628 
1.64114 2.45277 18.4747 
1.60685 2.45667 18.4867 
1.57244 2.46058 18.4988 
1.53793 2.4645 18.5108 
1.7094 2.45608 18.4508 
1.67533 2.45997 18.4628 
1.64114 2.46387 18.4747 
1.60685 2.46778 18.4867 
1.57244 2.47171 18.4988 
1.53793 2.47565 18.5108 
1.50331 2.4796 18.5229 
1.7094 2.46715 18.4508 
1.67533 2.47105 18.4628 
1.64114 2.47497 18.4747 
1.60685 2.4789 18.4867 
1.57244 2.48284 18.4988 
1.53793 2.4868 18.5108 
1.50331 2.49077 18.5229 
1.46858 2.49475 18.5351 
1.64114 2.48607 18.4747 
1.60685 2.49002 18.4867 
1.57244 2.49398 18.4988 
1.53793 2.49795 18.5108 
1.50331 2.50194 18.5229 
1.46858 2.50593 18.5351 
1.43373 2.50995 18.5473 
1.64114 2.49717 18.4747 
1.60685 2.50113 18.4867 
1.57244 2.50511 18.4988 
1.53793 2.5091 18.5108 
1.50331 2.51311 18.5229 
1.46858 2.51712 18.5351 
1.43373 2.52115 18.5473 
1.39878 2.52519 18.5595 
1.57244 2.51625 18.4988 
1.53793 2.52025 18.5108 
1.50331 2.52428 18.5229 
1.46858 2.52831 18.5351 
1.43373 2.53236 18.5473 
1.39878 2.53642 18.5595 
1.57244 2.52738 18.4988 
1.53793 2.53141 18.5108 
1.50331 2.53544 18.5229 
1.46858 2.5395 18.5351 
1.43373 2.54356 18.5473 
1.39878 2.54764 18.5595 
1.36371 2.55173 18.5718 
1.50331 2.54661 18.5229 
1.46858 2.55068 18.5351 
1.43373 2.55477 18.5473 
1.39878 2.55886 18.5595 
1.36371 2.56297 18.5718 
1.32853 2.56709 18.5841 
1.50331 2.55778 18.5229 
1.46858 2.56187 18.5351 
1.43373 2.56597 18.5473 
1.39878 2.57009 18.5595 
1.36371 2.57421 18.5718 
1.32853 2.57835 18.5841 
1.46858 2.57306 18.5351 
1.43373 2.57718 18.5473 
1.39878 2.58131 18.5595 
1.36371 2.58545 18.5718 
1.32853 2.58961 18.5841 
1.29323 2.59378 18.5965 
1.43373 2.58838 18.5473 
1.39878 2.59253 18.5595 
1.36371 2.5967 18.5718 
1.32853 2.60087 18.5841 
1.29323 2.60506 18.5965 
1.25783 2.60927 18.6088 
1.43373 2.59959 18.5473 
1.39878 2.60375 18.5595 
1.36371 2.60794 18.5718 
1.32853 2.61213 18.5841 
1.29323 2.61634 18.5965 
1.25783 2.62056 18.6088 
1.43373 2.61079 18.5473 
1.39878 2.61498 18.5595 
1.36371 2.61918 18.5718 
1.32853 2.62339 18.5841 
1.29323 2.62762 18.5965 
1.25783 2.63186 18.6088 
1.43373 2.622 18.5473 
1.39878 2.6262 18.5595 
1.36371 2.63042 18.5718 
1.32853 2.63465 18.5841 
1.29323 2.63889 18.5965 
1.25783 2.64315 18.6088 
1.22231 2.64742 18.6213 
1.43373 2.6332 18.5473 
1.39878 2.63742 18.5595 
1.36371 2.64166 18.5718 
1.32853 2.64591 18.5841 
1.29323 2.65017 18.5965 
1.25783 2.65445 18.6088 
1.22231 2.65874 18.6213 
1.18667 2.66304 18.6337 
1.43373 2.64441 18.5473 
1.39878 2.64865 18.5595 
1.36371 2.6529 18.5718 
1.32853 2.65717 18.5841 
1.29323 2.66145 18.5965 
1.25783 2.66574 18.6088 
1.22231 2.67005 18.6213 
1.18667 2.67437 18.6337 
1.43373 2.65561 18.5473 
1.39878 2.65987 18.5595 
1.36371 2.66414 18.5718 
1.32853 2.66843 18.5841 
1.29323 2.67273 18.5965 
1.25783 2.67704 18.6088 
1.22231 2.68137 18.6213 
1.18667 2.68571 18.6337 
1.15091 2.69006 18.6463 
1.43373 2.66682 18.5473 
1.39878 2.67109 18.5595 
1.36371 2.67538 18.5718 
1.32853 2.67969 18.5841 
1.29323 2.684 18.5965 
1.25783 2.68833 18.6088 
1.22231 2.69268 18.6213 
1.18667 2.69704 18.6337 
1.15091 2.70141 18.6463 
1.43373 2.67802 18.5473 
1.39878 2.68232 18.5595 
1.36371 2.68662 18.5718 
1.32853 2.69095 18.5841 
1.29323 2.69528 18.5965 
1.25783 2.69963 18.6088 
1.22231 2.70399 18.6213 
1.18667 2.70837 18.6337 
1.15091 2.71276 18.6463 
1.32853 2.7022 18.5841 
1.29323 2.70656 18.5965 
1.25783 2.71093 18.6088 
1.22231 2.71531 18.6213 
1.18667 2.7197 18.6337 
1.15091 2.72411 18.6463 
1.11504 2.72854 18.6588 
1.32853 2.71346 18.5841 
1.29323 2.71784 18.5965 
1.25783 2.72222 18.6088 
1.22231 2.72662 18.6213 
1.18667 2.73103 18.6337 
1.15091 2.73546 18.6463 
1.11504 2.73991 18.6588 
1.29323 2.72911 18.5965 
1.25783 2.73352 18.6088 
1.22231 2.73793 18.6213 
1.18667 2.74237 18.6337 
1.15091 2.74681 18.6463 
1.11504 2.75127 18.6588 
1.29323 2.74039 18.5965 
1.25783 2.74481 18.6088 
1.22231 2.74925 18.6213 
1.18667 2.7537 18.6337 
1.15091 2.75816 18.6463 
1.11504 2.76264 18.6588 
1.25783 2.75611 18.6088 
1.22231 2.76056 18.6213 
1.18667 2.76503 18.6337 
1.15091 2.76951 18.6463 
1.11504 2.77401 18.6588 
1.25783 2.7674 18.6088 
1.22231 2.77188 18.6213 
1.18667 2.77636 18.6337 
1.15091 2.78086 18.6463 
1.11504 2.78538 18.6588 
1.25783 2.7787 18.6088 
1.22231 2.78319 18.6213 
1.18667 2.7877 18.6337 
1.15091 2.79222 18.6463 
1.11504 2.79675 18.6588 
1.22231 2.7945 18.6213 
1.18667 2.79903 18.6337 
1.15091 2.80357 18.6463 
1.11504 2.80812 18.6588 
1.22231 2.80582 18.6213 
1.18667 2.81036 18.6337 
1.15091 2.81492 18.6463 
1.11504 2.81949 18.6588 
1.22231 2.81713 18.6213 
1.18667 2.82169 18.6337 
1.15091 2.82627 18.6463 
1.11504 2.83086 18.6588 
1.22231 2.82844 18.6213 
1.18667 2.83302 18.6337 
1.15091 2.83762 18.6463 
1.11504 2.84223 18.6588 
1.22231 2.83976 18.6213 
1.18667 2.84436 18.6337 
1.15091 2.84897 18.6463 
1.11504 2.8536 18.6588 
1.22231 2.85107 18.6213 
1.18667 2.85569 18.6337 
1.15091 2.86032 18.6463 
1.11504 2.86496 18.6588 
1.22231 2.86239 18.6213 
1.18667 2.86702 18.6337 
1.15091 2.87167 18.6463 
1.11504 2.87633 18.6588 
1.22231 2.8737 18.6213 
1.18667 2.87835 18.6337 
1.15091 2.88302 18.6463 
1.11504 2.8877 18.6588 
1.18667 2.88968 18.6337 
1.15091 2.89437 18.6463 
1.11504 2.89907 18.6588 
1.15091 2.90572 18.6463 
1.11504 2.91044 18.6588 
1.07906 2.91517 18.6714 
1.15091 2.91707 18.6463 
1.11504 2.92181 18.6588 
1.07906 2.92656 18.6714 
1.15091 2.92842 18.6463 
1.11504 2.93318 18.6588 
1.15091 2.93977 18.6463 
1.11504 2.94455 18.6588 
1.15091 2.95112 18.6463 
1.11504 2.95592 18.6588 
1.15091 2.96247 18.6463 
1.11504 2.96728 18.6588 
1.15091 2.97382 18.6463 
1.11504 2.97865 18.6588 
1.07906 2.9835 18.6714 
1.04296 2.98836 18.684 
1.11504 2.99002 18.6588 
1.07906 2.99489 18.6714 
1.04296 2.99977 18.684 
1.11504 3.00139 18.6588 
1.07906 3.00627 18.6714 
1.11504 3.01276 18.6588 
1.07906 3.01766 18.6714 
1.11504 3.02413 18.6588 
1.07906 3.02905 18.6714 
1.04296 3.03398 18.684 
1.15091 3.03058 18.6463 
1.11504 3.0355 18.6588 
1.07906 3.04044 18.6714 
1.04296 3.04539 18.684 
1.15091 3.04193 18.6463 
1.11504 3.04687 18.6588 
1.04296 3.0568 18.684 
1.15091 3.05328 18.6463 
1.11504 3.05824 18.6588 
1.04296 3.0682 18.684 
1.15091 3.06463 18.6463 
1.11504 3.0696 18.6588 
1.04296 3.07961 18.684 
1.11504 3.08097 18.6588 
1.07906 3.08599 18.6714 
1.04296 3.09101 18.684 
1.15091 3.08733 18.6463 
1.11504 3.09234 18.6588 
1.07906 3.09737 18.6714 
1.04296 3.10242 18.684 
1.15091 3.09868 18.6463 
1.11504 3.10371 18.6588 
1.07906 3.10876 18.6714 
1.04296 3.11383 18.684 
1.15091 3.11003 18.6463 
1.11504 3.11508 18.6588 
1.07906 3.12015 18.6714 
1.04296 3.12523 18.684 
1.15091 3.12138 18.6463 
1.11504 3.12645 18.6588 
1.07906 3.13153 18.6714 
1.04296 3.13664 18.684 
1.15091 3.13273 18.6463 
1.11504 3.13782 18.6588 
1.07906 3.14292 18.6714 
1.04296 3.14804 18.684 
1.15091 3.14408 18.6463 
1.11504 3.14919 18.6588 
1.07906 3.15431 18.6714 
1.04296 3.15945 18.684 
1.15091 3.15543 18.6463 
1.11504 3.16056 18.6588 
1.07906 3.1657 18.6714 
1.04296 3.17086 18.684 
1.15091 3.16678 18.6463 
1.11504 3.17192 18.6588 
1.07906 3.17708 18.6714 
1.04296 3.18226 18.684 
1.15091 3.17813 18.6463 
1.11504 3.18329 18.6588 
1.07906 3.18847 18.6714 
1.04296 3.19367 18.684 
1.15091 3.18948 18.6463 
1.11504 3.19466 18.6588 
1.07906 3.19986 18.6714 
1.04296 3.20507 18.684 
1.15091 3.20083 18.6463 
1.11504 3.20603 18.6588 
1.07906 3.21125 18.6714 
1.04296 3.21648 18.684 
1.00674 3.22173 18.6967 
1.15091 3.21218 18.6463 
1.11504 3.2174 18.6588 
1.07906 3.22263 18.6714 
1.04296 3.22789 18.684 
1.00674 3.23315 18.6967 
1.15091 3.22353 18.6463 
1.11504 3.22877 18.6588 
1.07906 3.23402 18.6714 
1.04296 3.23929 18.684 
1.00674 3.24458 18.6967 
0.970395 3.24988 18.7094 
1.15091 3.23488 18.6463 
1.11504 3.24014 18.6588 
1.07906 3.24541 18.6714 
1.04296 3.2507 18.684 
1.00674 3.256 18.6967 
0.970395 3.26132 18.7094 
1.15091 3.24623 18.6463 
1.11504 3.25151 18.6588 
1.07906 3.2568 18.6714 
1.04296 3.2621 18.684 
1.00674 3.26743 18.6967 
0.970395 3.27277 18.7094 
1.15091 3.25758 18.6463 
1.11504 3.26288 18.6588 
1.07906 3.26818 18.6714 
1.04296 3.27351 18.684 
1.00674 3.27885 18.6967 
0.970395 3.28421 18.7094 
1.15091 3.26894 18.6463 
1.11504 3.27424 18.6588 
1.07906 3.27957 18.6714 
1.04296 3.28491 18.684 
1.00674 3.29028 18.6967 
0.970395 3.29565 18.7094 
1.15091 3.28029 18.6463 
1.11504 3.28561 18.6588 
1.07906 3.29096 18.6714 
1.04296 3.29632 18.684 
1.00674 3.3017 18.6967 
0.970395 3.3071 18.7094 
1.15091 3.29164 18.6463 
1.11504 3.29698 18.6588 
1.07906 3.30235 18.6714 
1.04296 3.30773 18.684 
1.00674 3.31313 18.6967 
0.970395 3.31854 18.7094 
1.15091 3.30299 18.6463 
1.11504 3.30835 18.6588 
1.07906 3.31373 18.6714 
1.04296 3.31913 18.684 
1.00674 3.32455 18.6967 
0.970395 3.32998 18.7094 
1.15091 3.31434 18.6463 
1.11504 3.31972 18.6588 
1.07906 3.32512 18.6714 
1.04296 3.33054 18.684 
1.00674 3.33597 18.6967 
0.970395 3.34143 18.7094 
1.15091 3.32569 18.6463 
1.11504 3.33109 18.6588 
1.07906 3.33651 18.6714 
1.04296 3.34194 18.684 
1.00674 3.3474 18.6967 
0.970395 3.35287 18.7094 
1.15091 3.33704 18.6463 
1.11504 3.34246 18.6588 
1.07906 3.3479 18.6714 
1.04296 3.35335 18.684 
1.00674 3.35882 18.6967 
0.970395 3.36431 18.7094 
1.15091 3.34839 18.6463 
1.11504 3.35383 18.6588 
1.07906 3.35928 18.6714 
1.04296 3.36476 18.684 
1.00674 3.37025 18.6967 
0.970395 3.37576 18.7094 
1.15091 3.35974 18.6463 
1.11504 3.3652 18.6588 
1.07906 3.37067 18.6714 
1.04296 3.37616 18.684 
1.00674 3.38167 18.6967 
0.970395 3.3872 18.7094 
1.15091 3.37109 18.6463 
1.11504 3.37656 18.6588 
1.07906 3.38206 18.6714 
1.04296 3.38757 18.684 
1.00674 3.3931 18.6967 
0.970395 3.39864 18.7094 
1.15091 3.38244 18.6463 
1.11504 3.38793 18.6588 
1.07906 3.39344 18.6714 
1.04296 3.39897 18.684 
1.00674 3.40452 18.6967 
1.15091 3.39379 18.6463 
1.11504 3.3993 18.6588 
1.07906 3.40483 18.6714 
1.04296 3.41038 18.684 
1.15091 3.40514 18.6463 
1.11504 3.41067 18.6588 
1.07906 3.41622 18.6714 
1.04296 3.42179 18.684 
1.15091 3.41649 18.6463 
1.11504 3.42204 18.6588 
1.07906 3.42761 18.6714 
1.04296 3.43319 18.684 
1.15091 3.42784 18.6463 
1.11504 3.43341 18.6588 
1.07906 3.43899 18.6714 
1.04296 3.4446 18.684 
1.15091 3.43919 18.6463 
1.11504 3.44478 18.6588 
1.07906 3.45038 18.6714 
1.04296 3.456 18.684 
1.15091 3.45054 18.6463 
1.11504 3.45615 18.6588 
1.07906 3.46177 18.6714 
1.15091 3.46189 18.6463 
1.11504 3.46752 18.6588 
1.07906 3.47316 18.6714 
1.15091 3.47324 18.6463 
1.11504 3.47888 18.6588 
1.07906 3.48454 18.6714 
1.15091 3.48459 18.6463 
1.11504 3.49025 18.6588 
1.07906 3.49593 18.6714 
1.18667 3.49029 18.6337 
1.15091 3.49594 18.6463 
1.11504 3.50162 18.6588 
1.07906 3.50732 18.6714 
1.18667 3.50162 18.6337 
1.15091 3.5073 18.6463 
1.11504 3.51299 18.6588 
1.07906 3.51871 18.6714 
1.18667 3.51295 18.6337 
1.15091 3.51865 18.6463 
1.11504 3.52436 18.6588 
1.07906 3.53009 18.6714 
1.18667 3.52428 18.6337 
1.15091 3.53 18.6463 
1.11504 3.53573 18.6588 
1.07906 3.54148 18.6714 
1.18667 3.53561 18.6337 
1.15091 3.54135 18.6463 
1.11504 3.5471 18.6588 
1.07906 3.55287 18.6714 
1.18667 3.54695 18.6337 
1.15091 3.5527 18.6463 
1.11504 3.55847 18.6588 
1.07906 3.56426 18.6714 
1.22231 3.55253 18.6213 
1.18667 3.55828 18.6337 
1.15091 3.56405 18.6463 
1.11504 3.56984 18.6588 
1.07906 3.57564 18.6714 
1.22231 3.56384 18.6213 
1.18667 3.56961 18.6337 
1.15091 3.5754 18.6463 
1.11504 3.5812 18.6588 
1.22231 3.57515 18.6213 
1.18667 3.58094 18.6337 
1.15091 3.58675 18.6463 
1.11504 3.59257 18.6588 
1.22231 3.58647 18.6213 
1.18667 3.59227 18.6337 
1.15091 3.5981 18.6463 
1.11504 3.60394 18.6588 
1.22231 3.59778 18.6213 
1.18667 3.60361 18.6337 
1.15091 3.60945 18.6463 
1.11504 3.61531 18.6588 
1.22231 3.6091 18.6213 
1.18667 3.61494 18.6337 
1.15091 3.6208 18.6463 
1.11504 3.62668 18.6588 
1.25783 3.61457 18.6088 
1.22231 3.62041 18.6213 
1.18667 3.62627 18.6337 
1.15091 3.63215 18.6463 
1.11504 3.63805 18.6588 
1.25783 3.62586 18.6088 
1.22231 3.63172 18.6213 
1.18667 3.6376 18.6337 
1.15091 3.6435 18.6463 
1.11504 3.64942 18.6588 
1.29323 3.6313 18.5965 
1.25783 3.63716 18.6088 
1.22231 3.64304 18.6213 
1.18667 3.64893 18.6337 
1.29323 3.64258 18.5965 
1.25783 3.64845 18.6088 
1.22231 3.65435 18.6213 
1.18667 3.66027 18.6337 
1.29323 3.65385 18.5965 
1.25783 3.65975 18.6088 
1.22231 3.66566 18.6213 
1.18667 3.6716 18.6337 
1.29323 3.66513 18.5965 
1.25783 3.67104 18.6088 
1.22231 3.67698 18.6213 
1.18667 3.68293 18.6337 
1.29323 3.67641 18.5965 
1.25783 3.68234 18.6088 
1.29323 3.68769 18.5965 
1.25783 3.69364 18.6088 
-0.744321 1.9763 19.4914 
-0.744321 1.98866 19.4914 
3.19612 2.08029 17.9449 
3.16701 2.08335 17.9563 
3.1378 2.08642 17.9678 
3.10851 2.08951 17.9793 
3.07914 2.0926 17.9908 
3.19612 2.09058 17.9449 
3.16701 2.09366 17.9563 
3.1378 2.09675 17.9678 
3.10851 2.09985 17.9793 
3.07914 2.10296 17.9908 
3.04968 2.10608 18.0023 
3.16701 2.10398 17.9563 
3.1378 2.10708 17.9678 
3.10851 2.1102 17.9793 
3.07914 2.11332 17.9908 
3.04968 2.11645 18.0023 
3.02013 2.11959 18.0139 
2.99049 2.12274 18.0256 
2.96076 2.1259 18.0372 
2.93095 2.12907 18.0489 
2.90104 2.13225 18.0607 
3.16701 2.11429 17.9563 
3.1378 2.11741 17.9678 
3.10851 2.12054 17.9793 
3.07914 2.12368 17.9908 
3.04968 2.12683 18.0023 
3.02013 2.12998 18.0139 
2.99049 2.13315 18.0256 
2.96076 2.13632 18.0372 
2.93095 2.13951 18.0489 
2.90104 2.1427 18.0607 
2.87105 2.14591 18.0725 
2.84097 2.14912 18.0843 
3.16701 2.1246 17.9563 
3.1378 2.12774 17.9678 
3.10851 2.13088 17.9793 
3.07914 2.13404 17.9908 
3.04968 2.1372 18.0023 
3.02013 2.14037 18.0139 
2.99049 2.14355 18.0256 
2.96076 2.14675 18.0372 
2.93095 2.14995 18.0489 
2.90104 2.15316 18.0607 
2.87105 2.15638 18.0725 
2.84097 2.15961 18.0843 
3.16701 2.13492 17.9563 
3.1378 2.13807 17.9678 
3.10851 2.14123 17.9793 
3.07914 2.1444 17.9908 
3.04968 2.14757 18.0023 
3.02013 2.15076 18.0139 
2.99049 2.15396 18.0256 
2.96076 2.15717 18.0372 
2.93095 2.16038 18.0489 
2.90104 2.16361 18.0607 
2.87105 2.16684 18.0725 
2.84097 2.17009 18.0843 
2.81079 2.17334 18.0961 
2.78053 2.17661 18.108 
3.02013 2.16115 18.0139 
2.99049 2.16437 18.0256 
2.96076 2.16759 18.0372 
2.93095 2.17082 18.0489 
2.90104 2.17406 18.0607 
2.87105 2.17731 18.0725 
2.84097 2.18057 18.0843 
2.81079 2.18384 18.0961 
2.78053 2.18712 18.108 
2.75017 2.19041 18.1199 
2.71972 2.19371 18.1318 
2.99049 2.17477 18.0256 
2.96076 2.17801 18.0372 
2.93095 2.18126 18.0489 
2.90104 2.18451 18.0607 
2.87105 2.18778 18.0725 
2.84097 2.19106 18.0843 
2.81079 2.19434 18.0961 
2.78053 2.19764 18.108 
2.75017 2.20094 18.1199 
2.71972 2.20426 18.1318 
2.68919 2.20759 18.1438 
2.65856 2.21092 18.1559 
2.62783 2.21427 18.1679 
2.59702 2.21763 18.18 
2.56611 2.22099 18.1921 
1.99322 2.28339 18.417 
1.96045 2.28696 18.4298 
1.92757 2.29054 18.4427 
1.89459 2.29413 18.4557 
1.82833 2.30135 18.4817 
1.79503 2.30497 18.4948 
1.76164 2.30861 18.5079 
2.68919 2.21815 18.1438 
2.65856 2.2215 18.1559 
2.62783 2.22486 18.1679 
2.44152 2.24525 18.241 
2.41013 2.24869 18.2533 
2.37865 2.25213 18.2657 
2.18772 2.27303 18.3406 
2.15556 2.27655 18.3533 
2.12329 2.28008 18.3659 
2.09092 2.28362 18.3786 
2.05846 2.28717 18.3914 
2.02589 2.29074 18.4042 
1.99322 2.29431 18.417 
1.96045 2.2979 18.4298 
1.92757 2.3015 18.4427 
1.89459 2.30511 18.4557 
1.86151 2.30873 18.4687 
1.82833 2.31236 18.4817 
1.79503 2.316 18.4948 
1.76164 2.31966 18.5079 
1.72814 2.32332 18.521 
2.37865 2.26286 18.2657 
2.34708 2.26633 18.2781 
2.3154 2.26981 18.2905 
2.28363 2.27331 18.303 
2.25176 2.27681 18.3155 
2.21979 2.28033 18.3281 
2.18772 2.28385 18.3406 
2.15556 2.28739 18.3533 
2.12329 2.29094 18.3659 
2.09092 2.2945 18.3786 
2.05846 2.29807 18.3914 
2.02589 2.30165 18.4042 
1.99322 2.30524 18.417 
1.96045 2.30884 18.4298 
1.92757 2.31246 18.4427 
1.89459 2.31608 18.4557 
1.86151 2.31972 18.4687 
1.82833 2.32337 18.4817 
1.79503 2.32703 18.4948 
1.76164 2.3307 18.5079 
1.72814 2.33439 18.521 
1.69453 2.33808 18.5342 
2.18772 2.29468 18.3406 
2.15556 2.29823 18.3533 
2.12329 2.30179 18.3659 
2.09092 2.30537 18.3786 
2.05846 2.30896 18.3914 
2.02589 2.31255 18.4042 
1.99322 2.31616 18.417 
1.96045 2.31978 18.4298 
1.92757 2.32342 18.4427 
1.89459 2.32706 18.4557 
1.86151 2.33071 18.4687 
1.82833 2.33438 18.4817 
1.79503 2.33806 18.4948 
1.76164 2.34175 18.5079 
1.72814 2.34545 18.521 
1.69453 2.34916 18.5342 
2.05846 2.31985 18.3914 
2.02589 2.32346 18.4042 
1.99322 2.32709 18.417 
1.96045 2.33073 18.4298 
1.92757 2.33438 18.4427 
1.89459 2.33804 18.4557 
1.86151 2.34171 18.4687 
1.82833 2.34539 18.4817 
1.79503 2.34909 18.4948 
1.76164 2.35279 18.5079 
1.72814 2.35651 18.521 
1.69453 2.36024 18.5342 
1.92757 2.34534 18.4427 
1.89459 2.34901 18.4557 
1.86151 2.3527 18.4687 
1.82833 2.3564 18.4817 
1.79503 2.36012 18.4948 
1.76164 2.36384 18.5079 
1.72814 2.36758 18.521 
1.69453 2.37132 18.5342 
1.66082 2.37508 18.5474 
1.92757 2.3563 18.4427 
1.89459 2.35999 18.4557 
1.86151 2.3637 18.4687 
1.82833 2.36741 18.4817 
1.79503 2.37114 18.4948 
1.76164 2.37489 18.5079 
1.72814 2.37864 18.521 
1.69453 2.38241 18.5342 
1.66082 2.38618 18.5474 
1.627 2.38997 18.5607 
1.72814 2.3897 18.521 
1.69453 2.39349 18.5342 
1.66082 2.39728 18.5474 
1.627 2.40109 18.5607 
1.59307 2.40491 18.574 
1.55903 2.40874 18.5874 
1.72814 2.40077 18.521 
1.69453 2.40457 18.5342 
1.66082 2.40838 18.5474 
1.627 2.4122 18.5607 
1.59307 2.41604 18.574 
1.55903 2.41989 18.5874 
1.66082 2.41948 18.5474 
1.627 2.42332 18.5607 
1.59307 2.42717 18.574 
1.55903 2.43104 18.5874 
1.66082 2.43058 18.5474 
1.627 2.43444 18.5607 
1.59307 2.43831 18.574 
1.55903 2.44219 18.5874 
1.52489 2.44609 18.6008 
1.66082 2.44167 18.5474 
1.627 2.44555 18.5607 
1.59307 2.44944 18.574 
1.55903 2.45334 18.5874 
1.52489 2.45726 18.6008 
1.49064 2.46119 18.6142 
1.66082 2.45277 18.5474 
1.627 2.45667 18.5607 
1.59307 2.46058 18.574 
1.55903 2.4645 18.5874 
1.52489 2.46843 18.6008 
1.49064 2.47237 18.6142 
1.66082 2.46387 18.5474 
1.627 2.46778 18.5607 
1.59307 2.47171 18.574 
1.55903 2.47565 18.5874 
1.52489 2.4796 18.6008 
1.49064 2.48356 18.6142 
1.66082 2.47497 18.5474 
1.627 2.4789 18.5607 
1.59307 2.48284 18.574 
1.55903 2.4868 18.5874 
1.52489 2.49077 18.6008 
1.49064 2.49475 18.6142 
1.45627 2.49874 18.6277 
1.52489 2.50194 18.6008 
1.49064 2.50593 18.6142 
1.45627 2.50995 18.6277 
1.4218 2.51397 18.6412 
1.52489 2.51311 18.6008 
1.49064 2.51712 18.6142 
1.45627 2.52115 18.6277 
1.4218 2.52519 18.6412 
1.38721 2.52925 18.6548 
1.49064 2.52831 18.6142 
1.45627 2.53236 18.6277 
1.4218 2.53642 18.6412 
1.38721 2.54049 18.6548 
1.35252 2.54458 18.6684 
1.45627 2.54356 18.6277 
1.4218 2.54764 18.6412 
1.38721 2.55173 18.6548 
1.35252 2.55584 18.6684 
1.45627 2.55477 18.6277 
1.4218 2.55886 18.6412 
1.38721 2.56297 18.6548 
1.35252 2.56709 18.6684 
1.4218 2.57009 18.6412 
1.38721 2.57421 18.6548 
1.35252 2.57835 18.6684 
1.38721 2.58545 18.6548 
1.35252 2.58961 18.6684 
1.31771 2.59378 18.6821 
1.38721 2.5967 18.6548 
1.35252 2.60087 18.6684 
1.31771 2.60506 18.6821 
1.28279 2.60927 18.6958 
1.38721 2.60794 18.6548 
1.35252 2.61213 18.6684 
1.31771 2.61634 18.6821 
1.28279 2.62056 18.6958 
1.24776 2.6248 18.7095 
1.38721 2.61918 18.6548 
1.35252 2.62339 18.6684 
1.31771 2.62762 18.6821 
1.28279 2.63186 18.6958 
1.24776 2.63611 18.7095 
1.35252 2.63465 18.6684 
1.31771 2.63889 18.6821 
1.28279 2.64315 18.6958 
1.24776 2.64742 18.7095 
1.21261 2.65171 18.7233 
1.35252 2.64591 18.6684 
1.31771 2.65017 18.6821 
1.28279 2.65445 18.6958 
1.24776 2.65874 18.7095 
1.21261 2.66304 18.7233 
1.35252 2.65717 18.6684 
1.31771 2.66145 18.6821 
1.28279 2.66574 18.6958 
1.24776 2.67005 18.7095 
1.21261 2.67437 18.7233 
1.17735 2.67871 18.7372 
1.31771 2.67273 18.6821 
1.28279 2.67704 18.6958 
1.24776 2.68137 18.7095 
1.21261 2.68571 18.7233 
1.17735 2.69006 18.7372 
1.35252 2.67969 18.6684 
1.31771 2.684 18.6821 
1.28279 2.68833 18.6958 
1.24776 2.69268 18.7095 
1.21261 2.69704 18.7233 
1.17735 2.70141 18.7372 
1.14197 2.7058 18.7511 
1.35252 2.69095 18.6684 
1.31771 2.69528 18.6821 
1.28279 2.69963 18.6958 
1.24776 2.70399 18.7095 
1.21261 2.70837 18.7233 
1.17735 2.71276 18.7372 
1.14197 2.71717 18.7511 
1.31771 2.70656 18.6821 
1.28279 2.71093 18.6958 
1.24776 2.71531 18.7095 
1.21261 2.7197 18.7233 
1.17735 2.72411 18.7372 
1.14197 2.72854 18.7511 
1.28279 2.72222 18.6958 
1.24776 2.72662 18.7095 
1.21261 2.73103 18.7233 
1.17735 2.73546 18.7372 
1.14197 2.73991 18.7511 
1.24776 2.73793 18.7095 
1.21261 2.74237 18.7233 
1.17735 2.74681 18.7372 
1.14197 2.75127 18.7511 
1.24776 2.74925 18.7095 
1.21261 2.7537 18.7233 
1.17735 2.75816 18.7372 
1.14197 2.76264 18.7511 
1.21261 2.76503 18.7233 
1.17735 2.76951 18.7372 
1.14197 2.77401 18.7511 
1.10649 2.77853 18.765 
1.21261 2.77636 18.7233 
1.17735 2.78086 18.7372 
1.14197 2.78538 18.7511 
1.10649 2.78991 18.765 
1.21261 2.7877 18.7233 
1.17735 2.79222 18.7372 
1.14197 2.79675 18.7511 
1.10649 2.8013 18.765 
1.21261 2.79903 18.7233 
1.17735 2.80357 18.7372 
1.14197 2.80812 18.7511 
1.21261 2.81036 18.7233 
1.17735 2.81492 18.7372 
1.14197 2.81949 18.7511 
1.10649 2.82407 18.765 
1.07088 2.82868 18.779 
1.21261 2.82169 18.7233 
1.17735 2.82627 18.7372 
1.14197 2.83086 18.7511 
1.10649 2.83546 18.765 
1.07088 2.84008 18.779 
1.17735 2.83762 18.7372 
1.14197 2.84223 18.7511 
1.10649 2.84685 18.765 
1.07088 2.85149 18.779 
1.17735 2.84897 18.7372 
1.14197 2.8536 18.7511 
1.10649 2.85824 18.765 
1.07088 2.86289 18.779 
1.17735 2.86032 18.7372 
1.14197 2.86496 18.7511 
1.10649 2.86962 18.765 
1.07088 2.8743 18.779 
1.17735 2.87167 18.7372 
1.14197 2.87633 18.7511 
1.10649 2.88101 18.765 
1.07088 2.88571 18.779 
1.17735 2.88302 18.7372 
1.14197 2.8877 18.7511 
1.10649 2.8924 18.765 
1.07088 2.89711 18.779 
1.17735 2.89437 18.7372 
1.14197 2.89907 18.7511 
1.10649 2.90379 18.765 
1.07088 2.90852 18.779 
1.14197 2.91044 18.7511 
1.10649 2.91517 18.765 
1.07088 2.91992 18.779 
1.14197 2.92181 18.7511 
1.10649 2.92656 18.765 
1.07088 2.93133 18.779 
1.14197 2.93318 18.7511 
1.10649 2.93795 18.765 
1.07088 2.94274 18.779 
1.14197 2.94455 18.7511 
1.10649 2.94934 18.765 
1.07088 2.95414 18.779 
1.10649 2.96072 18.765 
1.07088 2.96555 18.779 
1.10649 2.97211 18.765 
1.07088 2.97695 18.779 
1.10649 2.9835 18.765 
1.07088 2.98836 18.779 
1.10649 2.99489 18.765 
1.07088 2.99977 18.779 
1.10649 3.00627 18.765 
1.10649 3.01766 18.765 
1.10649 3.02905 18.765 
1.10649 3.04044 18.765 
1.14197 3.09234 18.7511 
1.10649 3.09737 18.765 
1.07088 3.10242 18.779 
1.14197 3.10371 18.7511 
1.10649 3.10876 18.765 
1.07088 3.11383 18.779 
1.10649 3.12015 18.765 
1.07088 3.12523 18.779 
1.10649 3.13153 18.765 
1.07088 3.13664 18.779 
1.10649 3.14292 18.765 
1.07088 3.14804 18.779 
1.10649 3.15431 18.765 
1.07088 3.15945 18.779 
1.07088 3.17086 18.779 
1.07088 3.18226 18.779 
1.10649 3.18847 18.765 
1.10649 3.19986 18.765 
1.10649 3.21125 18.765 
1.07088 3.21648 18.779 
1.03516 3.22173 18.793 
1.10649 3.22263 18.765 
1.07088 3.22789 18.779 
1.03516 3.23315 18.793 
1.10649 3.23402 18.765 
1.07088 3.23929 18.779 
1.03516 3.24458 18.793 
1.10649 3.24541 18.765 
1.07088 3.2507 18.779 
1.03516 3.256 18.793 
1.10649 3.2568 18.765 
1.07088 3.2621 18.779 
1.03516 3.26743 18.793 
1.10649 3.26818 18.765 
1.07088 3.27351 18.779 
1.03516 3.27885 18.793 
1.10649 3.27957 18.765 
1.07088 3.28491 18.779 
1.03516 3.29028 18.793 
0.999319 3.29565 18.807 
0.963363 3.30105 18.8212 
0.92729 3.30647 18.8353 
1.10649 3.29096 18.765 
1.07088 3.29632 18.779 
1.03516 3.3017 18.793 
0.999319 3.3071 18.807 
0.963363 3.31251 18.8212 
0.92729 3.31795 18.8353 
1.10649 3.30235 18.765 
1.07088 3.30773 18.779 
1.03516 3.31313 18.793 
0.999319 3.31854 18.807 
0.963363 3.32398 18.8212 
0.92729 3.32943 18.8353 
1.10649 3.31373 18.765 
1.07088 3.31913 18.779 
1.03516 3.32455 18.793 
0.999319 3.32998 18.807 
