VERSION .7
FIELDS x y z
SIZE 4 4 4
TYPE F F F
COUNT 1 1 1
WIDTH 1942
HEIGHT 1
VIEWPOINT 0 0 0 1 0 0 0
POINTS 1942
DATA ascii
2.23602 1.75032 17.4615 
2.23602 1.75862 17.4615 
2.23602 1.76691 17.4615 
2.41889 1.86757 17.4752 
2.53497 1.91251 17.4839 
2.53497 1.92094 17.4839 
2.55836 1.92325 17.4856 
2.5818 1.92557 17.4874 
2.55836 1.93169 17.4856 
2.5818 1.93402 17.4874 
2.60529 1.93635 17.4892 
2.62885 1.93869 17.4909 
4.1545 2.09038 17.6052 
4.18195 2.09311 17.6073 
4.20948 2.09585 17.6094 
4.23707 2.09859 17.6114 
2.65246 1.94952 17.4927 
4.09981 2.09405 17.6012 
4.12712 2.09678 17.6032 
4.1545 2.09951 17.6052 
4.18195 2.10225 17.6073 
4.20948 2.105 17.6094 
4.23707 2.10776 17.6114 
4.26474 2.11052 17.6135 
4.29248 2.11329 17.6156 
4.3203 2.11607 17.6177 
4.34819 2.11885 17.6198 
4.37615 2.12165 17.6219 
4.40418 2.12445 17.624 
4.0454 2.0977 17.5971 
4.07257 2.10042 17.5991 
4.09981 2.10316 17.6012 
4.12712 2.10589 17.6032 
4.1545 2.10864 17.6052 
4.18195 2.11139 17.6073 
4.20948 2.11415 17.6094 
4.23707 2.11692 17.6114 
4.26474 2.1197 17.6135 
4.29248 2.12248 17.6156 
4.3203 2.12527 17.6177 
4.34819 2.12807 17.6198 
4.37615 2.13087 17.6219 
4.40418 2.13368 17.624 
4.43229 2.1365 17.6261 
4.46047 2.13933 17.6282 
2.72364 1.97364 17.498 
2.74748 1.97604 17.4998 
2.77138 1.97845 17.5016 
2.79533 1.98086 17.5034 
4.09981 2.11226 17.6012 
4.12712 2.11501 17.6032 
4.1545 2.11777 17.6052 
4.18195 2.12053 17.6073 
4.20948 2.12331 17.6094 
4.23707 2.12609 17.6114 
4.26474 2.12887 17.6135 
4.29248 2.13167 17.6156 
4.3203 2.13447 17.6177 
4.34819 2.13728 17.6198 
4.37615 2.14009 17.6219 
4.40418 2.14292 17.624 
4.43229 2.14575 17.6261 
4.46047 2.14859 17.6282 
2.84342 1.99427 17.507 
2.86756 1.99671 17.5088 
2.89175 1.99915 17.5106 
2.916 2.00161 17.5124 
4.12712 2.12413 17.6032 
4.1545 2.1269 17.6052 
4.18195 2.12967 17.6073 
4.20948 2.13246 17.6094 
4.23707 2.13525 17.6114 
4.26474 2.13805 17.6135 
4.29248 2.14086 17.6156 
4.3203 2.14367 17.6177 
4.34819 2.14649 17.6198 
4.37615 2.14932 17.6219 
4.40418 2.15216 17.624 
4.43229 2.155 17.6261 
4.46047 2.15785 17.6282 
2.89175 2.00773 17.5106 
2.916 2.0102 17.5124 
2.94031 2.01267 17.5143 
2.96469 2.01514 17.5161 
2.98912 2.01763 17.5179 
4.1545 2.13603 17.6052 
4.18195 2.13881 17.6073 
4.20948 2.14161 17.6094 
4.23707 2.14441 17.6114 
4.26474 2.14723 17.6135 
4.29248 2.15004 17.6156 
4.3203 2.15287 17.6177 
4.34819 2.1557 17.6198 
4.37615 2.15854 17.6219 
4.40418 2.16139 17.624 
4.43229 2.16425 17.6261 
4.46047 2.16711 17.6282 
2.94031 2.02127 17.5143 
2.96469 2.02376 17.5161 
2.98912 2.02625 17.5179 
3.01361 2.02875 17.5198 
3.03816 2.03125 17.5216 
3.06277 2.03376 17.5234 
3.08745 2.03628 17.5253 
3.11219 2.03881 17.5271 
3.13698 2.04134 17.529 
4.18195 2.14795 17.6073 
4.20948 2.15076 17.6094 
4.23707 2.15358 17.6114 
4.26474 2.1564 17.6135 
4.29248 2.15923 17.6156 
4.3203 2.16207 17.6177 
4.34819 2.16492 17.6198 
4.37615 2.16777 17.6219 
4.40418 2.17063 17.624 
4.43229 2.1735 17.6261 
4.46047 2.17637 17.6282 
2.96469 2.03237 17.5161 
2.98912 2.03487 17.5179 
3.01361 2.03738 17.5198 
3.03816 2.0399 17.5216 
3.06277 2.04242 17.5234 
3.08745 2.04495 17.5253 
3.11219 2.04748 17.5271 
3.13698 2.05002 17.529 
3.16184 2.05257 17.5309 
3.18676 2.05512 17.5327 
3.21174 2.05768 17.5346 
3.23679 2.06025 17.5365 
3.83056 2.12109 17.581 
4.20948 2.15992 17.6094 
4.23707 2.16274 17.6114 
4.26474 2.16558 17.6135 
4.29248 2.16842 17.6156 
4.3203 2.17127 17.6177 
4.34819 2.17413 17.6198 
4.37615 2.17699 17.6219 
4.40418 2.17987 17.624 
4.43229 2.18275 17.6261 
4.46047 2.18563 17.6282 
4.48873 2.18853 17.6303 
3.06277 2.05107 17.5234 
3.08745 2.05361 17.5253 
3.11219 2.05616 17.5271 
3.13698 2.05871 17.529 
3.16184 2.06127 17.5309 
3.18676 2.06383 17.5327 
3.21174 2.0664 17.5346 
3.23679 2.06898 17.5365 
3.26189 2.07156 17.5384 
3.28706 2.07415 17.5402 
3.3123 2.07675 17.5421 
3.33759 2.07935 17.544 
3.36295 2.08196 17.5459 
3.38838 2.08458 17.5478 
4.20948 2.16907 17.6094 
4.23707 2.17191 17.6114 
4.26474 2.17475 17.6135 
4.29248 2.17761 17.6156 
4.3203 2.18047 17.6177 
4.34819 2.18334 17.6198 
4.37615 2.18622 17.6219 
4.40418 2.1891 17.624 
4.43229 2.19199 17.6261 
4.46047 2.19489 17.6282 
4.48873 2.1978 17.6303 
3.11219 2.06483 17.5271 
3.13698 2.0674 17.529 
3.16184 2.06996 17.5309 
3.18676 2.07254 17.5327 
3.21174 2.07512 17.5346 
3.23679 2.07771 17.5365 
3.26189 2.0803 17.5384 
3.28706 2.0829 17.5402 
3.3123 2.08551 17.5421 
3.33759 2.08813 17.544 
3.36295 2.09075 17.5459 
3.38838 2.09337 17.5478 
3.41386 2.09601 17.5497 
3.43942 2.09865 17.5517 
4.26474 2.18393 17.6135 
4.29248 2.1868 17.6156 
4.3203 2.18967 17.6177 
4.34819 2.19255 17.6198 
4.37615 2.19544 17.6219 
4.40418 2.19834 17.624 
4.43229 2.20124 17.6261 
4.46047 2.20416 17.6282 
4.48873 2.20708 17.6303 
3.16184 2.07866 17.5309 
3.18676 2.08125 17.5327 
3.21174 2.08384 17.5346 
3.23679 2.08644 17.5365 
3.26189 2.08904 17.5384 
3.28706 2.09166 17.5402 
3.3123 2.09427 17.5421 
3.33759 2.0969 17.544 
3.36295 2.09953 17.5459 
3.38838 2.10217 17.5478 
3.41386 2.10481 17.5497 
3.43942 2.10746 17.5517 
3.46503 2.11012 17.5536 
4.26474 2.19311 17.6135 
4.29248 2.19599 17.6156 
4.3203 2.19887 17.6177 
4.34819 2.20177 17.6198 
4.37615 2.20467 17.6219 
4.40418 2.20758 17.624 
4.43229 2.21049 17.6261 
4.46047 2.21342 17.6282 
4.48873 2.21635 17.6303 
3.3123 2.10304 17.5421 
3.33759 2.10567 17.544 
3.36295 2.10831 17.5459 
3.38838 2.11096 17.5478 
3.41386 2.11362 17.5497 
3.43942 2.11628 17.5517 
3.46503 2.11895 17.5536 
4.3203 2.20807 17.6177 
4.34819 2.21098 17.6198 
4.37615 2.21389 17.6219 
4.40418 2.21681 17.624 
4.43229 2.21974 17.6261 
4.46047 2.22268 17.6282 
4.48873 2.22562 17.6303 
4.51707 2.22858 17.6324 
3.3123 2.1118 17.5421 
3.33759 2.11445 17.544 
3.36295 2.1171 17.5459 
3.38838 2.11976 17.5478 
3.41386 2.12243 17.5497 
3.43942 2.1251 17.5517 
3.46503 2.12778 17.5536 
3.49071 2.13047 17.5555 
4.3203 2.21727 17.6177 
4.34819 2.22019 17.6198 
4.37615 2.22312 17.6219 
4.40418 2.22605 17.624 
4.43229 2.22899 17.6261 
4.46047 2.23194 17.6282 
4.48873 2.2349 17.6303 
4.51707 2.23786 17.6324 
4.54548 2.24083 17.6346 
3.3123 2.12056 17.5421 
3.33759 2.12322 17.544 
3.36295 2.12588 17.5459 
3.38838 2.12856 17.5478 
3.41386 2.13123 17.5497 
3.43942 2.13392 17.5517 
3.46503 2.13661 17.5536 
3.49071 2.13931 17.5555 
4.3203 2.22647 17.6177 
4.34819 2.2294 17.6198 
4.37615 2.23234 17.6219 
4.40418 2.23529 17.624 
4.43229 2.23824 17.6261 
4.46047 2.2412 17.6282 
4.48873 2.24417 17.6303 
4.51707 2.24715 17.6324 
4.54548 2.25013 17.6346 
4.57396 2.25312 17.6367 
3.3123 2.12932 17.5421 
3.33759 2.13199 17.544 
3.36295 2.13467 17.5459 
3.38838 2.13735 17.5478 
3.41386 2.14004 17.5497 
3.43942 2.14274 17.5517 
3.46503 2.14544 17.5536 
3.49071 2.14815 17.5555 
4.3203 2.23567 17.6177 
4.34819 2.23861 17.6198 
4.37615 2.24156 17.6219 
4.40418 2.24452 17.624 
4.43229 2.24749 17.6261 
4.46047 2.25046 17.6282 
4.48873 2.25344 17.6303 
4.51707 2.25643 17.6324 
4.54548 2.25943 17.6346 
4.57396 2.26243 17.6367 
4.60252 2.26545 17.6388 
3.36295 2.14345 17.5459 
3.38838 2.14615 17.5478 
3.41386 2.14885 17.5497 
3.43942 2.15155 17.5517 
3.46503 2.15427 17.5536 
3.49071 2.15699 17.5555 
3.51646 2.15972 17.5574 
4.37615 2.25079 17.6219 
4.40418 2.25376 17.624 
4.43229 2.25674 17.6261 
4.46047 2.25972 17.6282 
4.48873 2.26272 17.6303 
4.51707 2.26572 17.6324 
4.54548 2.26873 17.6346 
4.57396 2.27175 17.6367 
4.60252 2.27477 17.6388 
3.36295 2.15224 17.5459 
3.38838 2.15494 17.5478 
3.41386 2.15765 17.5497 
3.43942 2.16037 17.5517 
3.46503 2.1631 17.5536 
3.49071 2.16583 17.5555 
4.37615 2.26001 17.6219 
4.40418 2.263 17.624 
4.43229 2.26599 17.6261 
4.46047 2.26898 17.6282 
4.48873 2.27199 17.6303 
4.51707 2.275 17.6324 
4.54548 2.27803 17.6346 
4.57396 2.28106 17.6367 
4.60252 2.28409 17.6388 
4.63116 2.28714 17.641 
3.41386 2.16646 17.5497 
3.43942 2.16919 17.5517 
3.46503 2.17193 17.5536 
3.49071 2.17467 17.5555 
4.37615 2.26924 17.6219 
4.40418 2.27223 17.624 
4.43229 2.27523 17.6261 
4.46047 2.27825 17.6282 
4.48873 2.28126 17.6303 
4.51707 2.28429 17.6324 
4.54548 2.28732 17.6346 
4.57396 2.29037 17.6367 
4.60252 2.29342 17.6388 
4.63116 2.29647 17.641 
3.43942 2.17801 17.5517 
3.46503 2.18075 17.5536 
3.49071 2.18351 17.5555 
4.37615 2.27846 17.6219 
4.40418 2.28147 17.624 
4.43229 2.28448 17.6261 
4.46047 2.28751 17.6282 
4.48873 2.29054 17.6303 
4.51707 2.29358 17.6324 
4.54548 2.29662 17.6346 
4.57396 2.29968 17.6367 
4.60252 2.30274 17.6388 
4.63116 2.30581 17.641 
4.43229 2.29373 17.6261 
4.46047 2.29677 17.6282 
4.48873 2.29981 17.6303 
4.51707 2.30286 17.6324 
4.54548 2.30592 17.6346 
4.57396 2.30899 17.6367 
4.60252 2.31206 17.6388 
4.63116 2.31515 17.641 
4.65987 2.31824 17.6431 
4.48873 2.30908 17.6303 
4.51707 2.31215 17.6324 
4.54548 2.31522 17.6346 
4.57396 2.3183 17.6367 
4.60252 2.32138 17.6388 
4.63116 2.32448 17.641 
4.65987 2.32758 17.6431 
4.68866 2.3307 17.6453 
4.48873 2.31836 17.6303 
4.51707 2.32143 17.6324 
4.54548 2.32452 17.6346 
4.57396 2.32761 17.6367 
4.60252 2.33071 17.6388 
4.63116 2.33382 17.641 
4.65987 2.33693 17.6431 
4.68866 2.34006 17.6453 
4.48873 2.32763 17.6303 
4.51707 2.33072 17.6324 
4.54548 2.33381 17.6346 
4.57396 2.33692 17.6367 
4.60252 2.34003 17.6388 
4.63116 2.34315 17.641 
4.65987 2.34628 17.6431 
4.68866 2.34942 17.6453 
4.71752 2.35256 17.6474 
4.48873 2.3369 17.6303 
4.51707 2.34 17.6324 
4.54548 2.34311 17.6346 
4.57396 2.34623 17.6367 
4.60252 2.34935 17.6388 
4.63116 2.35249 17.641 
4.65987 2.35563 17.6431 
4.68866 2.35878 17.6453 
4.71752 2.36194 17.6474 
4.74647 2.3651 17.6496 
4.48873 2.34618 17.6303 
4.51707 2.34929 17.6324 
4.54548 2.35241 17.6346 
4.57396 2.35554 17.6367 
4.60252 2.35868 17.6388 
4.63116 2.36182 17.641 
4.65987 2.36498 17.6431 
4.68866 2.36814 17.6453 
4.71752 2.37131 17.6474 
4.74647 2.37449 17.6496 
4.54548 2.36171 17.6346 
4.57396 2.36485 17.6367 
4.60252 2.368 17.6388 
4.63116 2.37116 17.641 
4.65987 2.37432 17.6431 
4.68866 2.3775 17.6453 
4.71752 2.38068 17.6474 
4.74647 2.38387 17.6496 
4.54548 2.37101 17.6346 
4.57396 2.37416 17.6367 
4.60252 2.37732 17.6388 
4.63116 2.38049 17.641 
4.65987 2.38367 17.6431 
4.68866 2.38686 17.6453 
4.71752 2.39005 17.6474 
4.74647 2.39326 17.6496 
4.54548 2.3803 17.6346 
4.57396 2.38347 17.6367 
4.60252 2.38664 17.6388 
4.63116 2.38983 17.641 
4.65987 2.39302 17.6431 
4.68866 2.39622 17.6453 
4.71752 2.39943 17.6474 
4.74647 2.40264 17.6496 
4.77549 2.40587 17.6518 
4.54548 2.3896 17.6346 
4.57396 2.39278 17.6367 
4.60252 2.39597 17.6388 
4.63116 2.39916 17.641 
4.65987 2.40237 17.6431 
4.68866 2.40558 17.6453 
4.71752 2.4088 17.6474 
4.74647 2.41203 17.6496 
4.77549 2.41527 17.6518 
4.54548 2.3989 17.6346 
4.57396 2.40209 17.6367 
4.60252 2.40529 17.6388 
4.63116 2.4085 17.641 
4.65987 2.41171 17.6431 
4.68866 2.41494 17.6453 
4.71752 2.41817 17.6474 
4.74647 2.42142 17.6496 
4.77549 2.42467 17.6518 
4.80459 2.42793 17.654 
4.54548 2.4082 17.6346 
4.57396 2.4114 17.6367 
4.60252 2.41461 17.6388 
4.63116 2.41783 17.641 
4.65987 2.42106 17.6431 
4.68866 2.4243 17.6453 
4.71752 2.42755 17.6474 
4.74647 2.4308 17.6496 
4.77549 2.43406 17.6518 
4.80459 2.43734 17.654 
4.83377 2.44062 17.6562 
4.60252 2.42394 17.6388 
4.63116 2.42717 17.641 
4.65987 2.43041 17.6431 
4.68866 2.43366 17.6453 
4.71752 2.43692 17.6474 
4.74647 2.44019 17.6496 
4.77549 2.44346 17.6518 
4.80459 2.44675 17.654 
4.83377 2.45004 17.6562 
4.86302 2.45334 17.6583 
4.60252 2.43326 17.6388 
4.63116 2.4365 17.641 
4.65987 2.43976 17.6431 
4.68866 2.44302 17.6453 
4.71752 2.44629 17.6474 
4.74647 2.44957 17.6496 
4.77549 2.45286 17.6518 
4.80459 2.45616 17.654 
4.83377 2.45946 17.6562 
4.86302 2.46278 17.6583 
4.60252 2.44258 17.6388 
4.63116 2.44584 17.641 
4.65987 2.44911 17.6431 
4.68866 2.45238 17.6453 
4.71752 2.45566 17.6474 
4.74647 2.45896 17.6496 
4.77549 2.46226 17.6518 
4.80459 2.46557 17.654 
4.83377 2.46889 17.6562 
4.86302 2.47221 17.6583 
4.89236 2.47555 17.6605 
4.92177 2.4789 17.6628 
4.60252 2.4519 17.6388 
4.63116 2.45517 17.641 
4.65987 2.45845 17.6431 
4.68866 2.46174 17.6453 
4.71752 2.46504 17.6474 
4.74647 2.46834 17.6496 
4.77549 2.47166 17.6518 
4.80459 2.47498 17.654 
4.83377 2.47831 17.6562 
4.86302 2.48165 17.6583 
4.89236 2.485 17.6605 
4.92177 2.48836 17.6628 
4.63116 2.46451 17.641 
4.65987 2.4678 17.6431 
4.68866 2.4711 17.6453 
4.71752 2.47441 17.6474 
4.74647 2.47773 17.6496 
4.77549 2.48105 17.6518 
4.80459 2.48439 17.654 
4.83377 2.48773 17.6562 
4.86302 2.49109 17.6583 
4.89236 2.49445 17.6605 
4.92177 2.49782 17.6628 
4.65987 2.47715 17.6431 
4.68866 2.48046 17.6453 
4.71752 2.48378 17.6474 
4.74647 2.48711 17.6496 
4.77549 2.49045 17.6518 
4.80459 2.4938 17.654 
4.83377 2.49716 17.6562 
4.86302 2.50052 17.6583 
4.89236 2.5039 17.6605 
4.92177 2.50728 17.6628 
4.65987 2.4865 17.6431 
4.68866 2.48982 17.6453 
4.71752 2.49316 17.6474 
4.74647 2.4965 17.6496 
4.77549 2.49985 17.6518 
4.80459 2.50321 17.654 
4.83377 2.50658 17.6562 
4.86302 2.50996 17.6583 
4.89236 2.51335 17.6605 
4.92177 2.51674 17.6628 
4.68866 2.49918 17.6453 
4.71752 2.50253 17.6474 
4.74647 2.50588 17.6496 
4.77549 2.50925 17.6518 
4.80459 2.51262 17.654 
4.83377 2.516 17.6562 
4.86302 2.51939 17.6583 
5.62097 2.63655 17.7151 
5.65239 2.64024 17.7175 
5.68389 2.65372 17.7199 
5.71549 2.65744 17.7222 
5.65239 2.65979 17.7175 
5.68389 2.66351 17.7199 
5.71549 2.66725 17.7222 
5.74717 2.67099 17.7246 
5.77894 2.67474 17.727 
5.81081 2.6785 17.7294 
5.65239 2.66957 17.7175 
5.68389 2.67331 17.7199 
5.71549 2.67705 17.7222 
5.74717 2.68081 17.7246 
5.77894 2.68457 17.727 
5.81081 2.68835 17.7294 
5.65239 2.67935 17.7175 
5.68389 2.6831 17.7199 
5.71549 2.68686 17.7222 
5.74717 2.69063 17.7246 
5.77894 2.69441 17.727 
5.81081 2.6982 17.7294 
5.68389 2.69289 17.7199 
5.71549 2.69666 17.7222 
5.74717 2.70045 17.7246 
5.77894 2.70424 17.727 
5.81081 2.70805 17.7294 
5.84276 2.71186 17.7318 
5.68389 2.70268 17.7199 
5.71549 2.70647 17.7222 
5.74717 2.71027 17.7246 
5.77894 2.71407 17.727 
5.81081 2.71789 17.7294 
5.84276 2.72172 17.7318 
5.68389 2.71248 17.7199 
5.71549 2.71628 17.7222 
5.74717 2.72009 17.7246 
5.77894 2.72391 17.727 
5.81081 2.72774 17.7294 
5.84276 2.73158 17.7318 
5.68389 2.72227 17.7199 
5.71549 2.72608 17.7222 
5.74717 2.72991 17.7246 
5.77894 2.73374 17.727 
5.81081 2.73759 17.7294 
5.84276 2.74144 17.7318 
5.68389 2.73206 17.7199 
5.71549 2.73589 17.7222 
5.74717 2.73973 17.7246 
5.77894 2.74358 17.727 
5.81081 2.74743 17.7294 
5.84276 2.75131 17.7318 
5.68389 2.74185 17.7199 
5.71549 2.74569 17.7222 
5.74717 2.74955 17.7246 
5.77894 2.75341 17.727 
5.81081 2.75728 17.7294 
5.84276 2.76117 17.7318 
5.8748 2.76506 17.7342 
5.68389 2.75165 17.7199 
5.71549 2.7555 17.7222 
5.74717 2.75937 17.7246 
5.77894 2.76324 17.727 
5.81081 2.76713 17.7294 
5.84276 2.77103 17.7318 
5.8748 2.77494 17.7342 
5.74717 2.76919 17.7246 
5.77894 2.77308 17.727 
5.81081 2.77698 17.7294 
5.84276 2.78089 17.7318 
5.8748 2.78481 17.7342 
5.74717 2.77901 17.7246 
5.77894 2.78291 17.727 
5.81081 2.78682 17.7294 
5.84276 2.79075 17.7318 
5.8748 2.79469 17.7342 
5.74717 2.78883 17.7246 
5.77894 2.79274 17.727 
5.81081 2.79667 17.7294 
5.84276 2.80061 17.7318 
5.8748 2.80456 17.7342 
5.74717 2.79865 17.7246 
5.77894 2.80258 17.727 
5.81081 2.80652 17.7294 
5.84276 2.81047 17.7318 
5.74717 2.80847 17.7246 
5.77894 2.81241 17.727 
5.81081 2.81637 17.7294 
5.84276 2.82033 17.7318 
5.74717 2.81828 17.7246 
5.77894 2.82224 17.727 
5.81081 2.82621 17.7294 
5.84276 2.8302 17.7318 
5.74717 2.8281 17.7246 
5.77894 2.83208 17.727 
5.81081 2.83606 17.7294 
5.84276 2.84006 17.7318 
5.74717 2.83792 17.7246 
5.77894 2.84191 17.727 
5.81081 2.84591 17.7294 
5.84276 2.84992 17.7318 
5.74717 2.84774 17.7246 
5.77894 2.85174 17.727 
5.81081 2.85576 17.7294 
5.84276 2.85978 17.7318 
5.71549 2.85356 17.7222 
5.74717 2.85756 17.7246 
5.77894 2.86158 17.727 
5.81081 2.8656 17.7294 
5.84276 2.86964 17.7318 
5.68389 2.85936 17.7199 
5.71549 2.86337 17.7222 
5.74717 2.86738 17.7246 
5.77894 2.87141 17.727 
5.81081 2.87545 17.7294 
5.84276 2.8795 17.7318 
5.68389 2.86915 17.7199 
5.71549 2.87317 17.7222 
5.74717 2.8772 17.7246 
5.77894 2.88125 17.727 
5.81081 2.8853 17.7294 
5.68389 2.87895 17.7199 
5.71549 2.88298 17.7222 
5.74717 2.88702 17.7246 
5.77894 2.89108 17.727 
5.81081 2.89515 17.7294 
5.84276 2.89922 17.7318 
5.65239 2.8847 17.7175 
5.68389 2.88874 17.7199 
5.71549 2.89279 17.7222 
5.74717 2.89684 17.7246 
5.77894 2.90091 17.727 
5.81081 2.90499 17.7294 
5.84276 2.90909 17.7318 
5.68389 2.89853 17.7199 
5.71549 2.90259 17.7222 
5.74717 2.90666 17.7246 
5.77894 2.91075 17.727 
5.81081 2.91484 17.7294 
5.84276 2.91895 17.7318 
5.8748 2.92307 17.7342 
5.90693 2.9272 17.7366 
5.68389 2.90832 17.7199 
5.71549 2.9124 17.7222 
5.74717 2.91648 17.7246 
5.77894 2.92058 17.727 
5.81081 2.92469 17.7294 
5.84276 2.92881 17.7318 
5.8748 2.93294 17.7342 
5.90693 2.93708 17.7366 
5.74717 2.9263 17.7246 
5.77894 2.93041 17.727 
5.81081 2.93454 17.7294 
5.84276 2.93867 17.7318 
5.8748 2.94282 17.7342 
5.90693 2.94697 17.7366 
5.74717 2.93612 17.7246 
5.77894 2.94025 17.727 
5.81081 2.94438 17.7294 
5.84276 2.94853 17.7318 
5.8748 2.95269 17.7342 
5.90693 2.95686 17.7366 
5.97147 2.96524 17.7414 
5.81081 2.95423 17.7294 
5.84276 2.95839 17.7318 
5.8748 2.96257 17.7342 
5.90693 2.96675 17.7366 
5.93916 2.97095 17.739 
5.97147 2.97516 17.7414 
6.00388 2.97938 17.7438 
6.03638 2.98361 17.7463 
5.84276 2.96825 17.7318 
5.8748 2.97244 17.7342 
5.90693 2.97664 17.7366 
5.93916 2.98085 17.739 
5.97147 2.98508 17.7414 
6.00388 2.98931 17.7438 
6.03638 2.99356 17.7463 
5.8748 2.98232 17.7342 
5.90693 2.98653 17.7366 
5.93916 2.99076 17.739 
5.97147 2.99499 17.7414 
6.00388 2.99924 17.7438 
6.03638 3.0035 17.7463 
5.8748 2.99219 17.7342 
5.90693 2.99642 17.7366 
5.93916 3.00066 17.739 
5.97147 3.00491 17.7414 
6.00388 3.00917 17.7438 
6.03638 3.01345 17.7463 
5.8748 3.00207 17.7342 
5.90693 3.00631 17.7366 
5.93916 3.01056 17.739 
5.97147 3.01483 17.7414 
6.00388 3.0191 17.7438 
6.03638 3.02339 17.7463 
6.06897 3.0277 17.7487 
5.8748 3.01194 17.7342 
5.90693 3.0162 17.7366 
5.93916 3.02046 17.739 
5.97147 3.02474 17.7414 
6.00388 3.02904 17.7438 
6.03638 3.03334 17.7463 
6.06897 3.03765 17.7487 
5.93916 3.03037 17.739 
5.97147 3.03466 17.7414 
6.00388 3.03897 17.7438 
6.03638 3.04328 17.7463 
6.06897 3.04761 17.7487 
6.10165 3.05196 17.7512 
5.93916 3.04027 17.739 
5.97147 3.04458 17.7414 
6.00388 3.0489 17.7438 
6.03638 3.05323 17.7463 
6.06897 3.05757 17.7487 
6.10165 3.06193 17.7512 
5.93916 3.05017 17.739 
5.97147 3.0545 17.7414 
6.00388 3.05883 17.7438 
6.03638 3.06317 17.7463 
6.06897 3.06753 17.7487 
6.10165 3.0719 17.7512 
5.93916 3.06008 17.739 
5.97147 3.06441 17.7414 
6.00388 3.06876 17.7438 
6.03638 3.07312 17.7463 
6.06897 3.07749 17.7487 
6.10165 3.08188 17.7512 
5.93916 3.06998 17.739 
5.97147 3.07433 17.7414 
6.00388 3.07869 17.7438 
6.03638 3.08307 17.7463 
6.06897 3.08745 17.7487 
6.10165 3.09185 17.7512 
5.93916 3.07988 17.739 
5.97147 3.08425 17.7414 
6.00388 3.08862 17.7438 
6.03638 3.09301 17.7463 
6.10165 3.10182 17.7512 
5.93916 3.08979 17.739 
5.97147 3.09416 17.7414 
6.00388 3.09855 17.7438 
6.03638 3.10296 17.7463 
6.10165 3.1118 17.7512 
5.93916 3.09969 17.739 
5.97147 3.10408 17.7414 
6.00388 3.10849 17.7438 
6.03638 3.1129 17.7463 
6.10165 3.12177 17.7512 
5.93916 3.10959 17.739 
5.97147 3.114 17.7414 
6.00388 3.11842 17.7438 
6.03638 3.12285 17.7463 
6.10165 3.13175 17.7512 
5.93916 3.1195 17.739 
5.97147 3.12392 17.7414 
6.00388 3.12835 17.7438 
6.03638 3.13279 17.7463 
6.06897 3.13725 17.7487 
6.10165 3.14172 17.7512 
5.93916 3.1294 17.739 
5.97147 3.13383 17.7414 
6.03638 3.14274 17.7463 
6.06897 3.14721 17.7487 
6.10165 3.15169 17.7512 
5.93916 3.1393 17.739 
5.97147 3.14375 17.7414 
6.03638 3.15268 17.7463 
6.06897 3.15717 17.7487 
6.10165 3.16167 17.7512 
5.93916 3.14921 17.739 
5.97147 3.15367 17.7414 
6.03638 3.16263 17.7463 
6.06897 3.16713 17.7487 
6.10165 3.17164 17.7512 
5.93916 3.15911 17.739 
5.97147 3.16358 17.7414 
6.03638 3.17257 17.7463 
6.06897 3.17709 17.7487 
6.10165 3.18161 17.7512 
6.06897 3.18705 17.7487 
6.10165 3.19159 17.7512 
6.10165 3.20156 17.7512 
6.10165 3.21154 17.7512 
6.10165 3.22151 17.7512 
6.06897 3.22689 17.7487 
6.10165 3.23148 17.7512 
6.06897 3.23685 17.7487 
6.10165 3.24146 17.7512 
6.06897 3.2468 17.7487 
6.10165 3.25143 17.7512 
6.06897 3.25676 17.7487 
6.10165 3.2614 17.7512 
6.06897 3.26672 17.7487 
6.10165 3.27138 17.7512 
6.06897 3.27668 17.7487 
6.10165 3.28135 17.7512 
6.03638 3.28197 17.7463 
6.03638 3.29192 17.7463 
6.03638 3.30186 17.7463 
6.03638 3.31181 17.7463 
5.90693 3.36232 17.7366 
1.88452 1.34327 17.4852 
1.88452 1.35141 17.4852 
1.9064 1.36113 17.486 
1.9064 1.43448 17.486 
1.97234 1.45587 17.4885 
1.97234 1.46405 17.4885 
1.99442 1.46576 17.4893 
1.99442 1.47395 17.4893 
1.99442 1.48214 17.4893 
2.01656 1.48388 17.4902 
2.01656 1.49207 17.4902 
2.01656 1.50027 17.4902 
2.01656 1.52487 17.4902 
2.01656 1.53307 17.4902 
2.03875 1.53486 17.491 
2.01656 1.54126 17.4902 
2.03875 1.54307 17.491 
2.06099 1.54488 17.4918 
2.01656 1.54946 17.4902 
2.03875 1.55128 17.491 
2.01656 1.55766 17.4902 
2.01656 1.56586 17.4902 
2.03875 1.56769 17.491 
2.03875 1.5759 17.491 
2.06099 1.57775 17.4918 
2.06099 1.58597 17.4918 
2.08328 1.58783 17.4927 
2.08328 1.59606 17.4927 
2.10562 1.59794 17.4935 
2.10562 1.60618 17.4935 
2.10562 1.61441 17.4935 
2.06099 1.63527 17.4918 
2.08328 1.64542 17.4927 
2.17297 1.6532 17.496 
2.08328 1.65365 17.4927 
2.17297 1.66146 17.496 
2.12802 1.67404 17.4943 
2.12802 1.68229 17.4943 
2.15047 1.68427 17.4952 
2.12802 1.69053 17.4943 
2.15047 1.69253 17.4952 
2.10562 1.69678 17.4935 
2.15047 1.70078 17.4952 
2.17297 1.70279 17.496 
0.432688 1.55498 17.4309 
2.10562 1.70502 17.4935 
2.15047 1.70904 17.4952 
2.17297 1.71106 17.496 
2.17297 1.71932 17.496 
2.19552 1.72136 17.4969 
2.19552 1.72963 17.4969 
2.19552 1.73791 17.4969 
2.21813 1.73996 17.4977 
2.21813 1.74825 17.4977 
2.24079 1.75862 17.4986 
2.24079 1.76691 17.4986 
2.33199 1.82534 17.502 
2.35492 1.83586 17.5028 
2.35492 1.8442 17.5028 
2.40095 1.85697 17.5046 
2.42405 1.86757 17.5054 
2.47041 1.89724 17.5072 
2.49368 1.89951 17.508 
2.517 1.9018 17.5089 
4.2184 2.06839 17.5726 
4.24605 2.0711 17.5736 
4.27378 2.07382 17.5746 
4.30158 2.07654 17.5757 
2.49368 1.90792 17.508 
2.517 1.91021 17.5089 
2.54037 1.91251 17.5098 
4.19081 2.07483 17.5715 
4.2184 2.07755 17.5726 
4.24605 2.08027 17.5736 
4.27378 2.08299 17.5746 
4.30158 2.08573 17.5757 
4.32945 2.08847 17.5767 
4.3574 2.09122 17.5778 
2.4472 1.91173 17.5063 
2.47041 1.91403 17.5072 
2.49368 1.91632 17.508 
2.517 1.91863 17.5089 
2.54037 1.92094 17.5098 
2.56381 1.92325 17.5106 
2.5873 1.92557 17.5115 
4.1085 2.07584 17.5684 
4.13587 2.07854 17.5695 
4.1633 2.08126 17.5705 
4.19081 2.08397 17.5715 
4.2184 2.0867 17.5726 
4.24605 2.08943 17.5736 
4.27378 2.09217 17.5746 
4.30158 2.09491 17.5757 
4.32945 2.09767 17.5767 
4.3574 2.10043 17.5778 
4.38542 2.1032 17.5788 
4.41351 2.10597 17.5799 
4.44168 2.10875 17.5809 
4.46992 2.11154 17.582 
2.4472 1.92012 17.5063 
2.47041 1.92242 17.5072 
2.517 1.92704 17.5089 
2.54037 1.92936 17.5098 
2.56381 1.93169 17.5106 
2.5873 1.93402 17.5115 
2.61084 1.93635 17.5124 
2.63445 1.93869 17.5133 
4.05398 2.07954 17.5664 
4.0812 2.08224 17.5674 
4.1085 2.08495 17.5684 
4.13587 2.08766 17.5695 
4.1633 2.09038 17.5705 
4.19081 2.09311 17.5715 
4.2184 2.09585 17.5726 
4.24605 2.09859 17.5736 
4.27378 2.10134 17.5746 
4.30158 2.1041 17.5757 
4.32945 2.10687 17.5767 
4.3574 2.10964 17.5778 
4.38542 2.11242 17.5788 
4.41351 2.11521 17.5799 
4.44168 2.118 17.5809 
4.46992 2.12081 17.582 
2.63445 1.94716 17.5133 
2.65811 1.94952 17.5142 
4.1633 2.09951 17.5705 
4.19081 2.10225 17.5715 
4.2184 2.105 17.5726 
4.24605 2.10776 17.5736 
4.27378 2.11052 17.5746 
4.30158 2.11329 17.5757 
4.32945 2.11607 17.5767 
4.3574 2.11885 17.5778 
4.38542 2.12165 17.5788 
4.41351 2.12445 17.5799 
4.44168 2.12725 17.5809 
4.46992 2.13007 17.582 
4.49824 2.13289 17.583 
4.52664 2.13572 17.5841 
2.68182 1.96037 17.5151 
2.7056 1.96275 17.516 
3.94578 2.08687 17.5624 
4.1633 2.10864 17.5705 
4.19081 2.11139 17.5715 
4.2184 2.11415 17.5726 
4.24605 2.11692 17.5736 
4.27378 2.1197 17.5746 
4.30158 2.12248 17.5757 
4.32945 2.12527 17.5767 
4.3574 2.12807 17.5778 
4.38542 2.13087 17.5788 
4.41351 2.13368 17.5799 
4.44168 2.1365 17.5809 
4.46992 2.13933 17.582 
4.49824 2.14216 17.583 
4.52664 2.145 17.5841 
2.7056 1.97124 17.516 
2.72943 1.97364 17.5168 
2.75332 1.97604 17.5177 
2.77727 1.97845 17.5186 
2.80128 1.98086 17.5195 
3.9189 2.0932 17.5614 
4.2184 2.12331 17.5726 
4.24605 2.12609 17.5736 
4.27378 2.12887 17.5746 
4.30158 2.13167 17.5757 
4.32945 2.13447 17.5767 
4.3574 2.13728 17.5778 
4.38542 2.14009 17.5788 
4.41351 2.14292 17.5799 
4.44168 2.14575 17.5809 
4.46992 2.14859 17.582 
4.49824 2.15144 17.583 
4.52664 2.15429 17.5841 
4.5551 2.15715 17.5852 
2.82535 1.99183 17.5204 
2.8979 1.99915 17.5231 
2.92221 2.00161 17.5241 
2.94657 2.00407 17.525 
4.2184 2.13246 17.5726 
4.24605 2.13525 17.5736 
4.27378 2.13805 17.5746 
4.30158 2.14086 17.5757 
4.32945 2.14367 17.5767 
4.3574 2.14649 17.5778 
4.38542 2.14932 17.5788 
4.41351 2.15216 17.5799 
4.44168 2.155 17.5809 
4.46992 2.15785 17.582 
4.49824 2.16071 17.583 
4.52664 2.16358 17.5841 
4.5551 2.16645 17.5852 
4.58365 2.16933 17.5862 
2.8979 2.00773 17.5231 
2.92221 2.0102 17.5241 
2.94657 2.01267 17.525 
2.97099 2.01514 17.5259 
2.99547 2.01763 17.5268 
4.3574 2.1557 17.5778 
4.38542 2.15854 17.5788 
4.41351 2.16139 17.5799 
4.44168 2.16425 17.5809 
4.46992 2.16711 17.582 
4.49824 2.16998 17.583 
4.52664 2.17286 17.5841 
4.5551 2.17575 17.5852 
4.58365 2.17864 17.5862 
2.94657 2.02127 17.525 
2.97099 2.02376 17.5259 
2.99547 2.02625 17.5268 
3.02002 2.02875 17.5277 
3.04462 2.03125 17.5286 
3.06929 2.03376 17.5296 
3.09401 2.03628 17.5305 
3.1188 2.03881 17.5314 
3.14365 2.04134 17.5323 
3.16856 2.04387 17.5333 
3.42111 2.06959 17.5427 
3.44672 2.07219 17.5437 
4.38542 2.16777 17.5788 
4.41351 2.17063 17.5799 
4.44168 2.1735 17.5809 
4.46992 2.17637 17.582 
4.49824 2.17926 17.583 
4.52664 2.18215 17.5841 
4.5551 2.18505 17.5852 
4.58365 2.18795 17.5862 
3.04462 2.0399 17.5286 
3.06929 2.04242 17.5296 
3.09401 2.04495 17.5305 
3.1188 2.04748 17.5314 
3.14365 2.05002 17.5323 
3.16856 2.05257 17.5333 
3.19353 2.05512 17.5342 
3.21857 2.05768 17.5351 
3.24366 2.06025 17.5361 
3.26882 2.06282 17.537 
3.29405 2.0654 17.538 
3.31933 2.06799 17.5389 
3.34468 2.07058 17.5399 
3.3701 2.07318 17.5408 
3.39557 2.07578 17.5418 
3.42111 2.07839 17.5427 
3.44672 2.08101 17.5437 
3.47239 2.08364 17.5446 
4.38542 2.17699 17.5788 
4.41351 2.17987 17.5799 
4.44168 2.18275 17.5809 
4.46992 2.18563 17.582 
4.49824 2.18853 17.583 
4.52664 2.19143 17.5841 
4.5551 2.19434 17.5852 
4.58365 2.19726 17.5862 
4.61227 2.20019 17.5873 
3.06929 2.05107 17.5296 
3.09401 2.05361 17.5305 
3.1188 2.05616 17.5314 
3.14365 2.05871 17.5323 
3.16856 2.06127 17.5333 
3.19353 2.06383 17.5342 
3.21857 2.0664 17.5351 
3.24366 2.06898 17.5361 
3.26882 2.07156 17.537 
3.29405 2.07415 17.538 
3.31933 2.07675 17.5389 
3.34468 2.07935 17.5399 
3.3701 2.08196 17.5408 
3.39557 2.08458 17.5418 
3.42111 2.0872 17.5427 
3.44672 2.08983 17.5437 
3.47239 2.09246 17.5446 
4.38542 2.18622 17.5788 
4.41351 2.1891 17.5799 
4.44168 2.19199 17.5809 
4.46992 2.19489 17.582 
4.49824 2.1978 17.583 
4.52664 2.20072 17.5841 
4.5551 2.20364 17.5852 
4.58365 2.20657 17.5862 
4.61227 2.20951 17.5873 
4.64096 2.21246 17.5884 
3.14365 2.0674 17.5323 
3.16856 2.06996 17.5333 
3.19353 2.07254 17.5342 
3.21857 2.07512 17.5351 
3.24366 2.07771 17.5361 
3.26882 2.0803 17.537 
3.29405 2.0829 17.538 
3.31933 2.08551 17.5389 
3.34468 2.08813 17.5399 
3.3701 2.09075 17.5408 
3.39557 2.09337 17.5418 
3.42111 2.09601 17.5427 
3.44672 2.09865 17.5437 
3.47239 2.10129 17.5446 
3.49812 2.10395 17.5456 
4.32945 2.18967 17.5767 
4.3574 2.19255 17.5778 
4.38542 2.19544 17.5788 
4.41351 2.19834 17.5799 
4.44168 2.20124 17.5809 
4.46992 2.20416 17.582 
4.49824 2.20708 17.583 
4.52664 2.21 17.5841 
4.5551 2.21294 17.5852 
4.58365 2.21588 17.5862 
4.61227 2.21883 17.5873 
4.64096 2.22179 17.5884 
3.16856 2.07866 17.5333 
3.19353 2.08125 17.5342 
3.21857 2.08384 17.5351 
3.24366 2.08644 17.5361 
3.26882 2.08904 17.537 
3.29405 2.09166 17.538 
3.31933 2.09427 17.5389 
3.34468 2.0969 17.5399 
3.3701 2.09953 17.5408 
3.39557 2.10217 17.5418 
3.42111 2.10481 17.5427 
3.44672 2.10746 17.5437 
3.47239 2.11012 17.5446 
3.49812 2.11279 17.5456 
4.32945 2.19887 17.5767 
4.3574 2.20177 17.5778 
4.38542 2.20467 17.5788 
4.41351 2.20758 17.5799 
4.44168 2.21049 17.5809 
4.46992 2.21342 17.582 
4.49824 2.21635 17.583 
4.52664 2.21929 17.5841 
4.5551 2.22224 17.5852 
4.58365 2.22519 17.5862 
4.61227 2.22816 17.5873 
4.64096 2.23113 17.5884 
4.66974 2.23411 17.5894 
3.3701 2.10831 17.5408 
3.39557 2.11096 17.5418 
3.42111 2.11362 17.5427 
3.44672 2.11628 17.5437 
3.47239 2.11895 17.5446 
3.49812 2.12163 17.5456 
3.52392 2.12431 17.5466 
3.54979 2.127 17.5475 
4.38542 2.21389 17.5788 
4.41351 2.21681 17.5799 
4.44168 2.21974 17.5809 
4.46992 2.22268 17.582 
4.49824 2.22562 17.583 
4.52664 2.22858 17.5841 
4.5551 2.23154 17.5852 
4.58365 2.2345 17.5862 
4.61227 2.23748 17.5873 
4.64096 2.24046 17.5884 
4.66974 2.24346 17.5894 
4.69859 2.24646 17.5905 
3.3701 2.1171 17.5408 
3.39557 2.11976 17.5418 
3.42111 2.12243 17.5427 
3.44672 2.1251 17.5437 
3.47239 2.12778 17.5446 
3.49812 2.13047 17.5456 
3.52392 2.13316 17.5466 
3.54979 2.13586 17.5475 
4.38542 2.22312 17.5788 
4.41351 2.22605 17.5799 
4.44168 2.22899 17.5809 
4.46992 2.23194 17.582 
4.49824 2.2349 17.583 
4.52664 2.23786 17.5841 
4.5551 2.24083 17.5852 
4.58365 2.24381 17.5862 
4.61227 2.2468 17.5873 
4.64096 2.2498 17.5884 
4.66974 2.2528 17.5894 
4.69859 2.25582 17.5905 
3.42111 2.13123 17.5427 
3.44672 2.13392 17.5437 
3.47239 2.13661 17.5446 
3.49812 2.13931 17.5456 
3.52392 2.14201 17.5466 
4.44168 2.23824 17.5809 
4.46992 2.2412 17.582 
4.49824 2.24417 17.583 
4.52664 2.24715 17.5841 
4.5551 2.25013 17.5852 
4.58365 2.25312 17.5862 
4.61227 2.25613 17.5873 
4.64096 2.25913 17.5884 
4.66974 2.26215 17.5894 
4.69859 2.26518 17.5905 
3.44672 2.14274 17.5437 
3.47239 2.14544 17.5446 
3.49812 2.14815 17.5456 
3.52392 2.15086 17.5466 
4.44168 2.24749 17.5809 
4.46992 2.25046 17.582 
4.49824 2.25344 17.583 
4.52664 2.25643 17.5841 
4.5551 2.25943 17.5852 
4.58365 2.26243 17.5862 
4.61227 2.26545 17.5873 
4.64096 2.26847 17.5884 
4.66974 2.2715 17.5894 
4.69859 2.27454 17.5905 
4.72751 2.27758 17.5916 
4.75652 2.28064 17.5927 
3.44672 2.15155 17.5437 
3.47239 2.15427 17.5446 
3.49812 2.15699 17.5456 
3.52392 2.15972 17.5466 
4.49824 2.26272 17.583 
4.52664 2.26572 17.5841 
4.5551 2.26873 17.5852 
4.58365 2.27175 17.5862 
4.61227 2.27477 17.5873 
4.64096 2.2778 17.5884 
4.66974 2.28085 17.5894 
4.69859 2.2839 17.5905 
4.72751 2.28695 17.5916 
4.75652 2.29002 17.5927 
3.47239 2.1631 17.5446 
4.49824 2.27199 17.583 
4.52664 2.275 17.5841 
4.5551 2.27803 17.5852 
4.58365 2.28106 17.5862 
4.61227 2.28409 17.5873 
4.64096 2.28714 17.5884 
4.66974 2.29019 17.5894 
4.69859 2.29326 17.5905 
4.72751 2.29633 17.5916 
4.75652 2.29941 17.5927 
4.7856 2.30249 17.5938 
4.5551 2.28732 17.5852 
4.58365 2.29037 17.5862 
4.61227 2.29342 17.5873 
4.64096 2.29647 17.5884 
4.66974 2.29954 17.5894 
4.69859 2.30262 17.5905 
4.72751 2.3057 17.5916 
4.75652 2.30879 17.5927 
4.7856 2.31189 17.5938 
4.81476 2.315 17.5949 
4.5551 2.29662 17.5852 
4.58365 2.29968 17.5862 
4.61227 2.30274 17.5873 
4.64096 2.30581 17.5884 
4.66974 2.30889 17.5894 
4.69859 2.31198 17.5905 
4.72751 2.31507 17.5916 
4.75652 2.31818 17.5927 
4.7856 2.32129 17.5938 
4.81476 2.32441 17.5949 
4.61227 2.31206 17.5873 
4.64096 2.31515 17.5884 
4.66974 2.31824 17.5894 
4.69859 2.32134 17.5905 
4.72751 2.32445 17.5916 
4.75652 2.32756 17.5927 
4.7856 2.33069 17.5938 
4.81476 2.33382 17.5949 
4.61227 2.32138 17.5873 
4.64096 2.32448 17.5884 
4.66974 2.32758 17.5894 
4.69859 2.3307 17.5905 
4.72751 2.33382 17.5916 
4.75652 2.33695 17.5927 
4.7856 2.34008 17.5938 
4.81476 2.34323 17.5949 
4.61227 2.33071 17.5873 
4.64096 2.33382 17.5884 
4.66974 2.33693 17.5894 
4.69859 2.34006 17.5905 
4.72751 2.34319 17.5916 
4.75652 2.34633 17.5927 
4.7856 2.34948 17.5938 
4.81476 2.35264 17.5949 
4.61227 2.34003 17.5873 
4.64096 2.34315 17.5884 
4.66974 2.34628 17.5894 
4.69859 2.34942 17.5905 
4.72751 2.35256 17.5916 
4.75652 2.35572 17.5927 
4.7856 2.35888 17.5938 
4.81476 2.36205 17.5949 
4.844 2.36523 17.596 
4.61227 2.34935 17.5873 
4.64096 2.35249 17.5884 
4.66974 2.35563 17.5894 
4.69859 2.35878 17.5905 
4.72751 2.36194 17.5916 
4.75652 2.3651 17.5927 
4.7856 2.36828 17.5938 
4.81476 2.37146 17.5949 
4.844 2.37465 17.596 
4.61227 2.35868 17.5873 
4.64096 2.36182 17.5884 
4.66974 2.36498 17.5894 
4.69859 2.36814 17.5905 
4.72751 2.37131 17.5916 
4.75652 2.37449 17.5927 
4.7856 2.37768 17.5938 
4.81476 2.38087 17.5949 
4.844 2.38408 17.596 
4.87332 2.38729 17.5971 
4.61227 2.368 17.5873 
4.64096 2.37116 17.5884 
4.66974 2.37432 17.5894 
4.69859 2.3775 17.5905 
4.72751 2.38068 17.5916 
4.75652 2.38387 17.5927 
4.7856 2.38707 17.5938 
4.81476 2.39028 17.5949 
4.844 2.3935 17.596 
4.87332 2.39673 17.5971 
4.61227 2.37732 17.5873 
4.64096 2.38049 17.5884 
4.66974 2.38367 17.5894 
4.69859 2.38686 17.5905 
4.72751 2.39005 17.5916 
4.75652 2.39326 17.5927 
4.7856 2.39647 17.5938 
4.81476 2.39969 17.5949 
4.844 2.40292 17.596 
4.87332 2.40616 17.5971 
4.66974 2.39302 17.5894 
4.69859 2.39622 17.5905 
4.72751 2.39943 17.5916 
4.75652 2.40264 17.5927 
4.7856 2.40587 17.5938 
4.81476 2.4091 17.5949 
4.844 2.41235 17.596 
4.87332 2.4156 17.5971 
4.90272 2.41886 17.5982 
4.93219 2.42213 17.5993 
4.66974 2.40237 17.5894 
4.69859 2.40558 17.5905 
4.72751 2.4088 17.5916 
4.75652 2.41203 17.5927 
4.7856 2.41527 17.5938 
4.81476 2.41851 17.5949 
4.844 2.42177 17.596 
4.87332 2.42504 17.5971 
4.90272 2.42831 17.5982 
4.93219 2.43159 17.5993 
4.66974 2.41171 17.5894 
4.69859 2.41494 17.5905 
4.72751 2.41817 17.5916 
4.75652 2.42142 17.5927 
4.7856 2.42467 17.5938 
4.81476 2.42793 17.5949 
4.844 2.43119 17.596 
4.87332 2.43447 17.5971 
4.90272 2.43776 17.5982 
4.93219 2.44105 17.5993 
4.66974 2.42106 17.5894 
4.69859 2.4243 17.5905 
4.72751 2.42755 17.5916 
4.75652 2.4308 17.5927 
4.7856 2.43406 17.5938 
4.81476 2.43734 17.5949 
4.844 2.44062 17.596 
4.87332 2.44391 17.5971 
4.90272 2.44721 17.5982 
4.93219 2.45051 17.5993 
4.66974 2.43041 17.5894 
4.69859 2.43366 17.5905 
4.72751 2.43692 17.5916 
4.75652 2.44019 17.5927 
4.7856 2.44346 17.5938 
4.81476 2.44675 17.5949 
4.844 2.45004 17.596 
4.87332 2.45334 17.5971 
4.90272 2.45665 17.5982 
4.93219 2.45998 17.5993 
4.96175 2.4633 17.6004 
4.66974 2.43976 17.5894 
4.69859 2.44302 17.5905 
4.72751 2.44629 17.5916 
4.75652 2.44957 17.5927 
4.7856 2.45286 17.5938 
4.81476 2.45616 17.5949 
4.844 2.45946 17.596 
4.87332 2.46278 17.5971 
4.90272 2.4661 17.5982 
4.93219 2.46944 17.5993 
4.96175 2.47278 17.6004 
4.66974 2.44911 17.5894 
4.69859 2.45238 17.5905 
4.72751 2.45566 17.5916 
4.75652 2.45896 17.5927 
4.7856 2.46226 17.5938 
4.81476 2.46557 17.5949 
4.844 2.46889 17.596 
4.87332 2.47221 17.5971 
4.90272 2.47555 17.5982 
4.93219 2.4789 17.5993 
4.96175 2.48225 17.6004 
4.99139 2.48562 17.6015 
4.66974 2.45845 17.5894 
4.69859 2.46174 17.5905 
4.72751 2.46504 17.5916 
4.75652 2.46834 17.5927 
4.7856 2.47166 17.5938 
4.81476 2.47498 17.5949 
4.844 2.47831 17.596 
4.87332 2.48165 17.5971 
4.90272 2.485 17.5982 
4.93219 2.48836 17.5993 
4.96175 2.49173 17.6004 
4.99139 2.4951 17.6015 
4.72751 2.47441 17.5916 
4.75652 2.47773 17.5927 
4.7856 2.48105 17.5938 
4.81476 2.48439 17.5949 
4.844 2.48773 17.596 
4.87332 2.49109 17.5971 
4.90272 2.49445 17.5982 
4.93219 2.49782 17.5993 
4.96175 2.5012 17.6004 
4.99139 2.50459 17.6015 
5.0211 2.50799 17.6026 
5.0509 2.5114 17.6037 
4.72751 2.48378 17.5916 
4.75652 2.48711 17.5927 
4.7856 2.49045 17.5938 
4.81476 2.4938 17.5949 
4.844 2.49716 17.596 
4.87332 2.50052 17.5971 
4.90272 2.5039 17.5982 
4.93219 2.50728 17.5993 
4.96175 2.51068 17.6004 
4.99139 2.51408 17.6015 
5.0211 2.51749 17.6026 
5.0509 2.52091 17.6037 
4.81476 2.50321 17.5949 
4.844 2.50658 17.596 
4.87332 2.50996 17.5971 
4.90272 2.51335 17.5982 
4.93219 2.51674 17.5993 
4.96175 2.52015 17.6004 
4.99139 2.52357 17.6015 
5.0211 2.52699 17.6026 
5.0509 2.53042 17.6037 
4.90272 2.5228 17.5982 
4.93219 2.52621 17.5993 
4.96175 2.52962 17.6004 
5.0509 2.53994 17.6037 
5.72758 2.64763 17.629 
5.75933 2.65135 17.6302 
5.79117 2.65507 17.6314 
5.69592 2.65372 17.6278 
5.72758 2.65744 17.629 
5.75933 2.66117 17.6302 
5.79117 2.66491 17.6314 
5.8231 2.66866 17.6326 
5.85512 2.67241 17.6338 
5.72758 2.66725 17.629 
5.75933 2.67099 17.6302 
5.79117 2.67474 17.6314 
5.8231 2.6785 17.6326 
5.85512 2.68228 17.6338 
5.88722 2.68606 17.635 
5.91943 2.68985 17.6362 
5.75933 2.68081 17.6302 
5.79117 2.68457 17.6314 
5.8231 2.68835 17.6326 
5.85512 2.69214 17.6338 
5.88722 2.69594 17.635 
5.91943 2.69974 17.6362 
5.75933 2.69063 17.6302 
5.79117 2.69441 17.6314 
5.8231 2.6982 17.6326 
5.85512 2.702 17.6338 
5.88722 2.70581 17.635 
5.91943 2.70963 17.6362 
5.75933 2.70045 17.6302 
5.79117 2.70424 17.6314 
5.8231 2.70805 17.6326 
5.85512 2.71186 17.6338 
5.88722 2.71569 17.635 
5.91943 2.71952 17.6362 
5.79117 2.71407 17.6314 
5.8231 2.71789 17.6326 
5.85512 2.72172 17.6338 
5.88722 2.72556 17.635 
5.91943 2.72941 17.6362 
5.8231 2.72774 17.6326 
5.85512 2.73158 17.6338 
5.88722 2.73544 17.635 
5.91943 2.7393 17.6362 
5.8231 2.73759 17.6326 
5.85512 2.74144 17.6338 
5.88722 2.74531 17.635 
5.91943 2.74919 17.6362 
5.95172 2.75308 17.6374 
5.9841 2.75698 17.6386 
5.8231 2.74743 17.6326 
5.85512 2.75131 17.6338 
5.88722 2.75519 17.635 
5.91943 2.75908 17.6362 
5.9841 2.7669 17.6386 
5.85512 2.76117 17.6338 
5.88722 2.76506 17.635 
5.91943 2.76897 17.6362 
5.95172 2.77289 17.6374 
5.9841 2.77681 17.6386 
5.85512 2.77103 17.6338 
5.88722 2.77494 17.635 
5.91943 2.77886 17.6362 
5.95172 2.78279 17.6374 
5.9841 2.78673 17.6386 
5.88722 2.78481 17.635 
5.91943 2.78875 17.6362 
5.95172 2.79269 17.6374 
5.9841 2.79665 17.6386 
5.88722 2.79469 17.635 
5.91943 2.79864 17.6362 
5.95172 2.8026 17.6374 
5.9841 2.80657 17.6386 
5.88722 2.80456 17.635 
5.91943 2.80852 17.6362 
5.95172 2.8125 17.6374 
5.9841 2.81648 17.6386 
6.01657 2.82048 17.6398 
5.88722 2.81444 17.635 
5.91943 2.81841 17.6362 
5.95172 2.8224 17.6374 
5.9841 2.8264 17.6386 
6.01657 2.83041 17.6398 
5.85512 2.82033 17.6338 
5.88722 2.82431 17.635 
5.91943 2.8283 17.6362 
5.95172 2.8323 17.6374 
5.9841 2.83632 17.6386 
6.01657 2.84034 17.6398 
5.85512 2.8302 17.6338 
5.88722 2.83419 17.635 
5.91943 2.83819 17.6362 
5.95172 2.84221 17.6374 
5.9841 2.84623 17.6386 
6.01657 2.85027 17.6398 
5.85512 2.84006 17.6338 
5.88722 2.84406 17.635 
5.91943 2.84808 17.6362 
5.95172 2.85211 17.6374 
5.9841 2.85615 17.6386 
5.85512 2.84992 17.6338 
5.88722 2.85394 17.635 
5.91943 2.85797 17.6362 
5.95172 2.86201 17.6374 
5.9841 2.86607 17.6386 
5.85512 2.85978 17.6338 
5.88722 2.86381 17.635 
5.91943 2.86786 17.6362 
5.8231 2.8656 17.6326 
5.85512 2.86964 17.6338 
5.88722 2.87369 17.635 
5.91943 2.87775 17.6362 
5.8231 2.87545 17.6326 
5.85512 2.8795 17.6338 
5.88722 2.88356 17.635 
5.91943 2.88764 17.6362 
5.8231 2.8853 17.6326 
5.85512 2.88936 17.6338 
5.88722 2.89344 17.635 
5.91943 2.89753 17.6362 
5.8231 2.89515 17.6326 
5.85512 2.89922 17.6338 
5.88722 2.90332 17.635 
5.91943 2.90742 17.6362 
5.79117 2.90091 17.6314 
5.8231 2.90499 17.6326 
5.85512 2.90909 17.6338 
5.88722 2.91319 17.635 
5.91943 2.91731 17.6362 
5.8231 2.91484 17.6326 
5.85512 2.91895 17.6338 
5.88722 2.92307 17.635 
5.91943 2.9272 17.6362 
5.8231 2.92469 17.6326 
5.85512 2.92881 17.6338 
5.88722 2.93294 17.635 
5.91943 2.93708 17.6362 
5.85512 2.93867 17.6338 
5.88722 2.94282 17.635 
5.91943 2.94697 17.6362 
5.88722 2.95269 17.635 
5.91943 2.95686 17.6362 
5.88722 2.96257 17.635 
5.91943 2.96675 17.6362 
5.95172 2.97095 17.6374 
5.9841 2.97516 17.6386 
6.01657 2.97938 17.6398 
5.91943 2.97664 17.6362 
5.95172 2.98085 17.6374 
5.9841 2.98508 17.6386 
6.01657 2.98931 17.6398 
6.04914 2.99356 17.6411 
5.95172 2.99076 17.6374 
5.9841 2.99499 17.6386 
6.01657 2.99924 17.6398 
6.04914 3.0035 17.6411 
6.0818 3.00778 17.6423 
5.95172 3.00066 17.6374 
5.9841 3.00491 17.6386 
6.01657 3.00917 17.6398 
6.04914 3.01345 17.6411 
6.0818 3.01774 17.6423 
6.01657 3.0191 17.6398 
6.04914 3.02339 17.6411 
6.04914 3.03334 17.6411 
6.0818 3.04761 17.6423 
6.11455 3.05196 17.6435 
6.0818 3.05757 17.6423 
6.11455 3.06193 17.6435 
6.0818 3.06753 17.6423 
6.11455 3.0719 17.6435 
6.0818 3.07749 17.6423 
6.11455 3.08188 17.6435 
6.0818 3.08745 17.6423 
6.11455 3.09185 17.6435 
6.0818 3.09741 17.6423 
6.11455 3.10182 17.6435 
6.1474 3.10625 17.6447 
6.0818 3.10737 17.6423 
6.11455 3.1118 17.6435 
6.0818 3.11733 17.6423 
6.11455 3.12177 17.6435 
6.0818 3.12729 17.6423 
6.11455 3.13175 17.6435 
6.0818 3.13725 17.6423 
6.11455 3.14172 17.6435 
6.1474 3.1462 17.6447 
6.0818 3.14721 17.6423 
6.11455 3.15169 17.6435 
6.1474 3.15619 17.6447 
6.11455 3.16167 17.6435 
6.1474 3.16618 17.6447 
6.11455 3.17164 17.6435 
6.1474 3.17617 17.6447 
6.11455 3.18161 17.6435 
6.1474 3.18615 17.6447 
6.11455 3.19159 17.6435 
6.11455 3.20156 17.6435 
6.11455 3.21154 17.6435 
6.1474 3.21612 17.6447 
6.11455 3.22151 17.6435 
6.1474 3.22611 17.6447 
6.11455 3.23148 17.6435 
6.1474 3.23609 17.6447 
6.11455 3.24146 17.6435 
6.1474 3.24608 17.6447 
6.1474 3.25607 17.6447 
6.11455 3.27138 17.6435 
6.11455 3.28135 17.6435 
6.11455 3.29133 17.6435 
6.0818 3.31652 17.6423 
6.0818 3.32648 17.6423 
6.0818 3.33644 17.6423 
6.01657 3.3667 17.6398 
5.9841 3.37185 17.6386 
6.01657 3.37663 17.6398 
5.9841 3.38176 17.6386 
1.82505 1.31426 17.5354 
2.08932 1.43152 17.5354 
2.08932 1.43975 17.5354 
2.11168 1.44144 17.5354 
1.89043 1.43282 17.5354 
1.86858 1.43928 17.5354 
1.89043 1.44096 17.5354 
1.91232 1.44264 17.5354 
1.89043 1.4491 17.5354 
1.91232 1.45079 17.5354 
1.93426 1.45248 17.5354 
1.93426 1.50144 17.5354 
1.95626 1.51136 17.5354 
1.95626 1.51953 17.5354 
1.97831 1.52948 17.5354 
2.00041 1.53127 17.5354 
2.00041 1.53946 17.5354 
2.00041 1.54765 17.5354 
1.93426 1.55856 17.5354 
2.02256 1.56586 17.5354 
1.95626 1.56855 17.5354 
1.97831 1.58674 17.5354 
2.00041 1.59678 17.5354 
2.02256 1.60685 17.5354 
2.02256 1.61505 17.5354 
2.04476 1.61694 17.5354 
2.06702 1.63527 17.5354 
2.08932 1.66188 17.5354 
2.11168 1.66383 17.5354 
2.11168 1.67207 17.5354 
2.13409 1.67404 17.5354 
2.11168 1.68031 17.5354 
2.13409 1.68229 17.5354 
2.13409 1.69053 17.5354 
2.15656 1.70078 17.5354 
2.15656 1.70904 17.5354 
2.17908 1.71106 17.5354 
2.17908 1.71932 17.5354 
2.20165 1.73791 17.5354 
2.24695 1.77521 17.5354 
2.26968 1.78562 17.5354 
2.26968 1.79392 17.5354 
2.29247 1.79606 17.5354 
2.31531 1.81484 17.5354 
2.36115 1.8442 17.5354 
2.43033 1.87595 17.5354 
4.22594 2.05009 17.5354 
4.25361 2.05277 17.5354 
4.28136 2.05546 17.5354 
4.30918 2.05816 17.5354 
4.33707 2.06087 17.5354 
4.36504 2.06358 17.5354 
4.39308 2.0663 17.5354 
4.42119 2.06903 17.5354 
4.44938 2.07176 17.5354 
4.47764 2.0745 17.5354 
4.50598 2.07725 17.5354 
4.53439 2.08 17.5354 
2.43033 1.88432 17.5354 
4.17081 2.05387 17.5354 
4.19834 2.05655 17.5354 
4.22594 2.05924 17.5354 
4.25361 2.06194 17.5354 
4.28136 2.06464 17.5354 
4.30918 2.06735 17.5354 
4.33707 2.07007 17.5354 
4.36504 2.07279 17.5354 
4.39308 2.07552 17.5354 
4.42119 2.07826 17.5354 
4.44938 2.08101 17.5354 
4.47764 2.08376 17.5354 
4.50598 2.08652 17.5354 
4.53439 2.08929 17.5354 
4.56288 2.09206 17.5354 
2.4535 1.89496 17.5354 
2.47673 1.89724 17.5354 
2.50001 1.89951 17.5354 
4.14335 2.06031 17.5354 
4.17081 2.063 17.5354 
4.19834 2.06569 17.5354 
4.22594 2.06839 17.5354 
4.25361 2.0711 17.5354 
4.28136 2.07382 17.5354 
4.30918 2.07654 17.5354 
4.33707 2.07927 17.5354 
4.36504 2.082 17.5354 
4.39308 2.08475 17.5354 
4.42119 2.0875 17.5354 
4.44938 2.09026 17.5354 
4.47764 2.09302 17.5354 
4.50598 2.09579 17.5354 
4.53439 2.09857 17.5354 
4.56288 2.10136 17.5354 
4.59144 2.10416 17.5354 
4.62008 2.10696 17.5354 
2.50001 1.90792 17.5354 
2.52334 1.91021 17.5354 
2.54674 1.91251 17.5354 
4.0614 2.06137 17.5354 
4.08865 2.06405 17.5354 
4.22594 2.07755 17.5354 
4.25361 2.08027 17.5354 
4.28136 2.08299 17.5354 
4.30918 2.08573 17.5354 
4.33707 2.08847 17.5354 
4.36504 2.09122 17.5354 
4.39308 2.09397 17.5354 
4.42119 2.09674 17.5354 
4.44938 2.09951 17.5354 
4.47764 2.10228 17.5354 
4.50598 2.10507 17.5354 
4.53439 2.10786 17.5354 
4.56288 2.11066 17.5354 
4.59144 2.11347 17.5354 
4.62008 2.11628 17.5354 
2.4535 1.91173 17.5354 
2.47673 1.91403 17.5354 
2.50001 1.91632 17.5354 
2.52334 1.91863 17.5354 
2.54674 1.92094 17.5354 
2.57019 1.92325 17.5354 
4.00712 2.0651 17.5354 
4.03423 2.06777 17.5354 
4.28136 2.09217 17.5354 
4.30918 2.09491 17.5354 
4.33707 2.09767 17.5354 
4.36504 2.10043 17.5354 
4.39308 2.1032 17.5354 
4.42119 2.10597 17.5354 
4.44938 2.10875 17.5354 
4.47764 2.11154 17.5354 
4.50598 2.11434 17.5354 
4.53439 2.11715 17.5354 
4.56288 2.11996 17.5354 
4.59144 2.12278 17.5354 
4.62008 2.12561 17.5354 
4.6488 2.12844 17.5354 
2.4535 1.92012 17.5354 
2.47673 1.92242 17.5354 
2.50001 1.92473 17.5354 
2.52334 1.92704 17.5354 
2.54674 1.92936 17.5354 
2.57019 1.93169 17.5354 
2.59369 1.93402 17.5354 
2.61726 1.93635 17.5354 
4.28136 2.10134 17.5354 
4.30918 2.1041 17.5354 
4.33707 2.10687 17.5354 
4.36504 2.10964 17.5354 
4.39308 2.11242 17.5354 
4.42119 2.11521 17.5354 
4.44938 2.118 17.5354 
4.47764 2.12081 17.5354 
4.50598 2.12362 17.5354 
4.53439 2.12643 17.5354 
4.56288 2.12926 17.5354 
4.59144 2.13209 17.5354 
4.62008 2.13493 17.5354 
4.6488 2.13778 17.5354 
4.67759 2.14063 17.5354 
2.57019 1.94012 17.5354 
2.59369 1.94246 17.5354 
2.61726 1.94481 17.5354 
2.64088 1.94716 17.5354 
2.66455 1.94952 17.5354 
4.36504 2.11885 17.5354 
4.39308 2.12165 17.5354 
4.42119 2.12445 17.5354 
4.44938 2.12725 17.5354 
4.47764 2.13007 17.5354 
4.50598 2.13289 17.5354 
4.53439 2.13572 17.5354 
4.56288 2.13855 17.5354 
4.59144 2.1414 17.5354 
4.62008 2.14425 17.5354 
4.6488 2.14711 17.5354 
4.67759 2.14998 17.5354 
4.70646 2.15285 17.5354 
2.64088 1.95563 17.5354 
2.66455 1.95799 17.5354 
4.36504 2.12807 17.5354 
4.39308 2.13087 17.5354 
4.42119 2.13368 17.5354 
4.44938 2.1365 17.5354 
4.47764 2.13933 17.5354 
4.50598 2.14216 17.5354 
4.53439 2.145 17.5354 
4.56288 2.14785 17.5354 
4.59144 2.15071 17.5354 
4.62008 2.15357 17.5354 
4.6488 2.15645 17.5354 
4.67759 2.15933 17.5354 
4.70646 2.16221 17.5354 
2.71208 1.97124 17.5354 
2.73593 1.97364 17.5354 
2.75984 1.97604 17.5354 
2.7838 1.97845 17.5354 
2.80783 1.98086 17.5354 
4.39308 2.14009 17.5354 
4.42119 2.14292 17.5354 
4.44938 2.14575 17.5354 
4.47764 2.14859 17.5354 
4.50598 2.15144 17.5354 
4.53439 2.15429 17.5354 
4.56288 2.15715 17.5354 
4.59144 2.16002 17.5354 
4.62008 2.1629 17.5354 
4.6488 2.16578 17.5354 
4.67759 2.16867 17.5354 
4.70646 2.17157 17.5354 
2.83191 1.99183 17.5354 
2.85606 1.99427 17.5354 
2.88026 1.99671 17.5354 
2.90452 1.99915 17.5354 
2.92884 2.00161 17.5354 
2.95322 2.00407 17.5354 
3.45372 2.05456 17.5354 
3.47941 2.05715 17.5354 
3.50516 2.05975 17.5354 
4.39308 2.14932 17.5354 
4.42119 2.15216 17.5354 
4.44938 2.155 17.5354 
4.47764 2.15785 17.5354 
4.50598 2.16071 17.5354 
4.53439 2.16358 17.5354 
4.56288 2.16645 17.5354 
4.59144 2.16933 17.5354 
4.62008 2.17222 17.5354 
4.6488 2.17512 17.5354 
4.67759 2.17802 17.5354 
4.70646 2.18093 17.5354 
4.73541 2.18385 17.5354 
2.90452 2.00773 17.5354 
2.92884 2.0102 17.5354 
2.95322 2.01267 17.5354 
2.97766 2.01514 17.5354 
3.00216 2.01763 17.5354 
3.02672 2.02012 17.5354 
3.05134 2.02261 17.5354 
3.07602 2.02511 17.5354 
3.10077 2.02762 17.5354 
3.12557 2.03013 17.5354 
3.32624 2.05046 17.5354 
3.35161 2.05303 17.5354 
3.37704 2.05561 17.5354 
3.40254 2.05819 17.5354 
3.4281 2.06078 17.5354 
