VERSION .7
FIELDS x y z
SIZE 4 4 4
TYPE F F F
COUNT 1 1 1
WIDTH 1942
HEIGHT 1
VIEWPOINT 0 0 0 1 0 0 0
POINTS 1942
DATA ascii
2.58196 1.40033 16.0379 
2.58196 1.4071 16.0379 
2.58007 1.41523 16.0559 
2.58007 1.422 16.0559 
2.57818 1.42338 16.0739 
2.57628 1.43154 16.092 
2.57628 1.43833 16.092 
2.57438 1.44651 16.1101 
2.57247 1.45472 16.1282 
2.57247 1.46151 16.1282 
2.57056 1.46974 16.1464 
2.5532 1.78474 16.3116 
2.5532 1.79161 16.3116 
2.5532 1.79847 16.3116 
2.5532 1.80534 16.3116 
2.5532 1.8122 16.3116 
2.5532 1.81907 16.3116 
2.5532 1.82593 16.3116 
2.5532 1.8328 16.3116 
2.55708 1.93882 16.2746 
2.55514 1.94072 16.2931 
2.55708 1.94567 16.2746 
2.55514 1.94758 16.2931 
2.57735 1.36125 15.9695 
2.57735 1.36799 15.9695 
2.57591 1.37605 15.9874 
2.57446 1.37738 16.0054 
2.57446 1.38413 16.0054 
2.57301 1.38546 16.0233 
2.57301 1.39222 16.0233 
2.57301 1.39898 16.0233 
2.57155 1.40033 16.0413 
2.57155 1.4071 16.0413 
2.5701 1.40846 16.0594 
2.5701 1.41523 16.0594 
2.56864 1.42338 16.0775 
2.56864 1.43016 16.0775 
2.56718 1.43154 16.0956 
2.56718 1.43833 16.0956 
2.56571 1.43972 16.1137 
2.56571 1.44651 16.1137 
2.56424 1.45472 16.1319 
2.56424 1.46151 16.1319 
2.56277 1.46974 16.1501 
2.54941 1.78474 16.3156 
2.54941 1.8122 16.3156 
2.5509 1.89272 16.2971 
2.5509 1.93386 16.2971 
2.5524 1.93882 16.2786 
2.5509 1.94072 16.2971 
2.5524 1.94567 16.2786 
2.5509 1.94758 16.2971 
2.5524 1.95253 16.2786 
2.56731 1.34518 15.9374 
2.56731 1.3519 15.9374 
2.5663 1.3532 15.9552 
2.5663 1.35994 15.9552 
2.56529 1.36125 15.9731 
2.56529 1.36799 15.9731 
2.56428 1.3693 15.9911 
2.56428 1.37605 15.9911 
2.56326 1.37738 16.009 
2.56326 1.38413 16.009 
2.56225 1.38546 16.027 
2.56225 1.39222 16.027 
2.56225 1.39898 16.027 
2.56123 1.40033 16.0451 
2.56123 1.4071 16.0451 
2.56021 1.40846 16.0631 
2.56021 1.41523 16.0631 
2.56021 1.422 16.0631 
2.55919 1.42338 16.0812 
2.55919 1.43016 16.0812 
2.55816 1.43154 16.0994 
2.55816 1.43833 16.0994 
2.55714 1.43972 16.1176 
2.55714 1.44651 16.1176 
2.55611 1.45472 16.1358 
2.55611 1.46151 16.1358 
2.54572 1.77788 16.3198 
2.54572 1.78474 16.3198 
2.54572 1.79161 16.3198 
2.54572 1.79847 16.3198 
2.54572 1.80534 16.3198 
2.54677 1.88586 16.3013 
2.54677 1.89272 16.3013 
2.54677 1.89958 16.3013 
2.54677 1.90643 16.3013 
2.54677 1.91329 16.3013 
2.54677 1.92015 16.3013 
2.54677 1.92701 16.3013 
2.54781 1.93197 16.2827 
2.54677 1.93386 16.3013 
2.54781 1.93882 16.2827 
2.54677 1.94072 16.3013 
2.54781 1.94567 16.2827 
2.54677 1.94758 16.3013 
2.54781 1.95253 16.2827 
2.54677 1.95444 16.3013 
2.55562 1.33589 15.9056 
2.55505 1.33717 15.9234 
2.55505 1.34389 15.9234 
2.55447 1.34518 15.9412 
2.5539 1.3532 15.9591 
2.5539 1.35994 15.9591 
2.55332 1.36125 15.977 
2.55332 1.36799 15.977 
2.55274 1.3693 15.995 
2.55274 1.37605 15.995 
2.55216 1.37738 16.013 
2.55216 1.38413 16.013 
2.55158 1.38546 16.031 
2.55158 1.39222 16.031 
2.55158 1.39898 16.031 
2.551 1.40033 16.049 
2.551 1.4071 16.049 
2.55041 1.40846 16.0671 
2.55041 1.41523 16.0671 
2.54983 1.4166 16.0853 
2.54983 1.42338 16.0853 
2.54924 1.42476 16.1034 
2.54983 1.43016 16.0853 
2.54924 1.43154 16.1034 
2.54924 1.43833 16.1034 
2.54866 1.43972 16.1216 
2.54866 1.44651 16.1216 
2.54807 1.44792 16.1398 
2.54807 1.45472 16.1398 
2.54807 1.46151 16.1398 
2.54748 1.46974 16.1581 
2.54213 1.77788 16.3241 
2.54213 1.78474 16.3241 
2.54213 1.79161 16.3241 
2.54213 1.8122 16.3241 
2.54213 1.81907 16.3241 
2.54213 1.82593 16.3241 
2.54213 1.8328 16.3241 
2.54213 1.83966 16.3241 
2.54213 1.84652 16.3241 
2.54213 1.85339 16.3241 
2.54213 1.86025 16.3241 
2.54273 1.89272 16.3055 
2.54273 1.89958 16.3055 
2.54273 1.90643 16.3055 
2.54273 1.91329 16.3055 
2.54273 1.92701 16.3055 
2.54333 1.93197 16.2869 
2.54273 1.93386 16.3055 
2.54333 1.93882 16.2869 
2.54273 1.94072 16.3055 
2.54333 1.94567 16.2869 
2.54333 1.95253 16.2869 
2.54333 1.95938 16.2869 
2.54217 1.32119 15.8919 
2.54188 1.33717 15.9276 
2.54173 1.34518 15.9454 
2.54159 1.34647 15.9633 
2.54159 1.3532 15.9633 
2.54145 1.36125 15.9812 
2.5413 1.36256 15.9992 
2.5413 1.3693 15.9992 
2.54116 1.37062 16.0172 
2.54116 1.37738 16.0172 
2.54101 1.37871 16.0352 
2.54116 1.38413 16.0172 
2.54101 1.38546 16.0352 
2.54101 1.39222 16.0352 
2.54087 1.39357 16.0533 
2.54087 1.40033 16.0533 
2.54072 1.40169 16.0714 
2.54072 1.40846 16.0714 
2.54057 1.40982 16.0895 
2.54072 1.41523 16.0714 
2.54057 1.4166 16.0895 
2.54057 1.42338 16.0895 
2.54043 1.42476 16.1077 
2.54043 1.43154 16.1077 
2.54028 1.43293 16.1259 
2.54028 1.43972 16.1259 
2.54028 1.44651 16.1259 
2.54013 1.44792 16.1441 
2.54013 1.45472 16.1441 
2.54013 1.46151 16.1441 
2.53998 1.46974 16.1624 
2.53969 1.49987 16.199 
2.53969 1.50669 16.199 
2.53954 1.52181 16.2174 
2.53865 1.77102 16.3284 
2.53865 1.77788 16.3284 
2.53865 1.78474 16.3284 
2.53865 1.79161 16.3284 
2.53865 1.8122 16.3284 
2.53865 1.81907 16.3284 
2.53865 1.82593 16.3284 
2.53865 1.8328 16.3284 
2.53865 1.83966 16.3284 
2.53865 1.84652 16.3284 
2.53865 1.85339 16.3284 
2.53865 1.86025 16.3284 
2.5388 1.89958 16.3098 
2.5388 1.90643 16.3098 
2.5388 1.91329 16.3098 
2.5388 1.92701 16.3098 
2.5388 1.93386 16.3098 
2.5388 1.94072 16.3098 
2.53895 1.95253 16.2913 
2.52738 1.30403 15.8433 
2.52881 1.33717 15.932 
2.5291 1.33845 15.9499 
2.5291 1.34518 15.9499 
2.52939 1.34647 15.9678 
2.52968 1.35451 15.9857 
2.52968 1.36125 15.9857 
2.52997 1.36256 16.0036 
2.52997 1.3693 16.0036 
2.53026 1.37062 16.0216 
2.53026 1.37738 16.0216 
2.53055 1.37871 16.0397 
2.53055 1.38546 16.0397 
2.53055 1.39222 16.0397 
2.53084 1.39357 16.0577 
2.53084 1.40033 16.0577 
2.53113 1.40169 16.0758 
2.53113 1.40846 16.0758 
2.53142 1.40982 16.0939 
2.53113 1.41523 16.0758 
2.53142 1.4166 16.0939 
2.53171 1.41797 16.1121 
2.53142 1.42338 16.0939 
2.53171 1.42476 16.1121 
2.53171 1.43154 16.1121 
2.53201 1.43293 16.1303 
2.53201 1.43972 16.1303 
2.53201 1.44651 16.1303 
2.5323 1.44792 16.1486 
2.5323 1.45472 16.1486 
2.5323 1.46151 16.1486 
2.53259 1.46293 16.1668 
2.53259 1.46974 16.1668 
2.53289 1.48479 16.1851 
2.53319 1.49987 16.2035 
2.53527 1.75729 16.3329 
2.53527 1.76415 16.3329 
2.53527 1.77102 16.3329 
2.53527 1.77788 16.3329 
2.53527 1.78474 16.3329 
2.53527 1.79161 16.3329 
2.53527 1.79847 16.3329 
2.53527 1.80534 16.3329 
2.53527 1.8122 16.3329 
2.53527 1.81907 16.3329 
2.53497 1.88586 16.3143 
2.53497 1.89272 16.3143 
2.53497 1.89958 16.3143 
2.53497 1.90643 16.3143 
2.53497 1.91329 16.3143 
2.53497 1.92015 16.3143 
2.53497 1.92701 16.3143 
2.53497 1.93386 16.3143 
2.53497 1.94072 16.3143 
2.53497 1.94758 16.3143 
2.53497 1.95444 16.3143 
2.53467 1.97308 16.2957 
2.51158 1.29611 15.8305 
2.51229 1.30403 15.8481 
2.513 1.31197 15.8658 
2.51586 1.33717 15.9368 
2.51658 1.33845 15.9547 
2.51658 1.34518 15.9547 
2.5173 1.34647 15.9725 
2.51802 1.35451 15.9904 
2.51802 1.36125 15.9904 
2.51874 1.36256 16.0084 
2.51874 1.3693 16.0084 
2.51947 1.37062 16.0264 
2.51947 1.37738 16.0264 
2.52019 1.37871 16.0444 
2.52019 1.38546 16.0444 
2.52019 1.39222 16.0444 
2.52092 1.39357 16.0624 
2.52092 1.40033 16.0624 
2.52165 1.40169 16.0805 
2.52165 1.40846 16.0805 
2.52238 1.40982 16.0986 
2.52165 1.41523 16.0805 
2.52238 1.4166 16.0986 
2.52311 1.41797 16.1168 
2.52238 1.42338 16.0986 
2.52311 1.42476 16.1168 
2.52311 1.43154 16.1168 
2.52384 1.43293 16.135 
2.52384 1.43972 16.135 
2.52458 1.44112 16.1532 
2.52458 1.44792 16.1532 
2.52458 1.45472 16.1532 
2.52531 1.45613 16.1715 
2.52531 1.46293 16.1715 
2.52531 1.46974 16.1715 
2.52605 1.47117 16.1897 
2.52605 1.47798 16.1897 
2.52605 1.48479 16.1897 
2.532 1.75729 16.3374 
2.532 1.76415 16.3374 
2.532 1.8122 16.3374 
2.53125 1.88586 16.3188 
2.53125 1.89272 16.3188 
2.53125 1.89958 16.3188 
2.53125 1.90643 16.3188 
2.53125 1.91329 16.3188 
2.53125 1.92015 16.3188 
2.53125 1.92701 16.3188 
2.53125 1.93386 16.3188 
2.53125 1.94072 16.3188 
2.53125 1.94758 16.3188 
2.5305 1.98678 16.3003 
2.5305 1.99363 16.3003 
2.49278 1.27908 15.7831 
2.49391 1.28697 15.8006 
2.49391 1.29364 15.8006 
2.49504 1.29487 15.8181 
2.49617 1.30279 15.8357 
2.49731 1.30403 15.8533 
2.49845 1.31197 15.871 
2.50418 1.33845 15.9597 
2.50533 1.34647 15.9776 
2.50648 1.35451 15.9955 
2.50648 1.36125 15.9955 
2.50764 1.36256 16.0134 
2.50764 1.3693 16.0134 
2.5088 1.37062 16.0314 
2.5088 1.37738 16.0314 
2.50996 1.37871 16.0493 
2.50996 1.38546 16.0493 
2.51112 1.3868 16.0674 
2.51112 1.39357 16.0674 
2.51229 1.39492 16.0854 
2.51112 1.40033 16.0674 
2.51229 1.40169 16.0854 
2.51229 1.40846 16.0854 
2.51345 1.40982 16.1035 
2.51345 1.4166 16.1035 
2.51462 1.41797 16.1217 
2.51345 1.42338 16.1035 
2.51462 1.42476 16.1217 
2.51462 1.43154 16.1217 
2.5158 1.43293 16.1398 
2.5158 1.43972 16.1398 
2.51697 1.44112 16.158 
2.51697 1.44792 16.158 
2.51697 1.45472 16.158 
2.51815 1.45613 16.1763 
2.51815 1.46293 16.1763 
2.51815 1.46974 16.1763 
2.51933 1.47117 16.1945 
2.51933 1.47798 16.1945 
2.51933 1.48479 16.1945 
2.52884 1.75729 16.342 
2.52884 1.78474 16.342 
2.52884 1.79161 16.342 
2.52884 1.79847 16.342 
2.52884 1.80534 16.342 
2.52764 1.89272 16.3234 
2.52764 1.89958 16.3234 
2.52764 1.90643 16.3234 
2.52764 1.91329 16.3234 
2.52764 1.94072 16.3234 
2.52764 1.94758 16.3234 
2.52645 1.98678 16.3049 
2.47469 1.27787 15.7713 
2.47624 1.27908 15.7888 
2.47779 1.2803 15.8063 
2.47779 1.28697 15.8063 
2.47934 1.2882 15.8238 
2.47934 1.29487 15.8238 
2.4809 1.29611 15.8413 
2.48246 1.29734 15.8589 
2.4809 1.30279 15.8413 
2.48246 1.30403 15.8589 
2.48403 1.30528 15.8765 
2.48403 1.31197 15.8765 
2.4856 1.31323 15.8942 
2.49348 1.33974 15.9829 
2.49348 1.34647 15.9829 
2.49507 1.34777 16.0008 
2.49666 1.34907 16.0187 
2.49507 1.35451 16.0008 
2.49666 1.35581 16.0187 
2.49507 1.36125 16.0008 
2.49666 1.36256 16.0187 
2.49825 1.36387 16.0366 
2.49825 1.37062 16.0366 
2.49984 1.37195 16.0546 
2.49984 1.37871 16.0546 
2.50144 1.38004 16.0725 
2.49984 1.38546 16.0546 
2.50144 1.3868 16.0725 
2.50144 1.39357 16.0725 
2.50304 1.39492 16.0906 
2.50304 1.40169 16.0906 
2.50465 1.40304 16.1086 
2.50304 1.40846 16.0906 
2.50465 1.40982 16.1086 
2.50626 1.41119 16.1267 
2.50465 1.4166 16.1086 
2.50626 1.41797 16.1267 
2.50626 1.42476 16.1267 
2.50787 1.42614 16.1449 
2.50626 1.43154 16.1267 
2.50787 1.43293 16.1449 
2.50948 1.43432 16.163 
2.50948 1.44112 16.163 
2.50948 1.44792 16.163 
2.5111 1.44933 16.1812 
2.5111 1.45613 16.1812 
2.5111 1.46293 16.1812 
2.5111 1.46974 16.1812 
2.51272 1.47117 16.1995 
2.51272 1.47798 16.1995 
2.51272 1.48479 16.1995 
2.51434 1.49987 16.2177 
2.51597 1.52181 16.236 
2.52579 1.77102 16.3467 
2.52579 1.80534 16.3467 
2.52579 1.8122 16.3467 
2.52579 1.81907 16.3467 
2.52579 1.82593 16.3467 
2.52415 1.91329 16.3281 
2.52415 1.92015 16.3281 
2.52415 1.92701 16.3281 
2.52415 1.93386 16.3281 
2.52415 1.94072 16.3281 
2.52415 1.94758 16.3281 
2.52415 1.95444 16.3281 
2.52251 1.99363 16.3096 
2.46181 1.2803 15.8123 
2.46181 1.28697 15.8123 
2.46379 1.2882 15.8298 
2.46379 1.29487 15.8298 
2.46577 1.29611 15.8473 
2.46776 1.29734 15.8648 
2.46577 1.30279 15.8473 
2.46776 1.30403 15.8648 
2.46975 1.30528 15.8824 
2.47174 1.31323 15.9 
2.48177 1.34647 15.9886 
2.48379 1.34777 16.0064 
2.48581 1.34907 16.0242 
2.48379 1.35451 16.0064 
2.48581 1.35581 16.0242 
2.48581 1.36256 16.0242 
2.48783 1.36387 16.0421 
2.48783 1.37062 16.0421 
2.48986 1.37195 16.06 
2.48986 1.37871 16.06 
2.49189 1.38004 16.078 
2.48986 1.38546 16.06 
2.49189 1.3868 16.078 
2.49189 1.39357 16.078 
2.49393 1.39492 16.0959 
2.49393 1.40169 16.0959 
2.49597 1.40304 16.114 
2.49597 1.40982 16.114 
2.49801 1.41119 16.132 
2.49597 1.4166 16.114 
2.49801 1.41797 16.132 
2.49801 1.42476 16.132 
2.50006 1.42614 16.1501 
2.50212 1.42753 16.1682 
2.50006 1.43293 16.1501 
2.50212 1.43432 16.1682 
2.50212 1.44112 16.1682 
2.50212 1.44792 16.1682 
2.50417 1.44933 16.1864 
2.50417 1.45613 16.1864 
2.50417 1.46293 16.1864 
2.50623 1.46436 16.2046 
2.50623 1.47117 16.2046 
2.50623 1.47798 16.2046 
2.52286 1.76415 16.3514 
2.52286 1.77102 16.3514 
2.52286 1.77788 16.3514 
2.52286 1.78474 16.3514 
2.52077 1.89958 16.3329 
2.52077 1.90643 16.3329 
2.52077 1.91329 16.3329 
2.52077 1.93386 16.3329 
2.52077 1.94072 16.3329 
2.52077 1.94758 16.3329 
2.52077 1.95444 16.3329 
2.52077 1.9613 16.3329 
2.44359 1.27908 15.8014 
2.44599 1.2803 15.8188 
2.44599 1.28697 15.8188 
2.44839 1.29487 15.8362 
2.45079 1.29611 15.8536 
2.45079 1.30279 15.8536 
2.4532 1.30403 15.8711 
2.45561 1.31197 15.8886 
2.45803 1.31323 15.9062 
2.4702 1.34647 15.9945 
2.47264 1.34777 16.0122 
2.47509 1.34907 16.03 
2.47264 1.35451 16.0122 
2.47509 1.35581 16.03 
2.47509 1.36256 16.03 
2.47755 1.36387 16.0478 
2.47755 1.37062 16.0478 
2.48001 1.37195 16.0657 
2.48001 1.37871 16.0657 
2.48248 1.38004 16.0836 
2.48001 1.38546 16.0657 
2.48248 1.3868 16.0836 
2.48495 1.38814 16.1015 
2.48248 1.39357 16.0836 
2.48495 1.39492 16.1015 
2.48495 1.40169 16.1015 
2.48742 1.40304 16.1195 
2.48495 1.40846 16.1015 
2.48742 1.40982 16.1195 
2.4899 1.41119 16.1375 
2.48742 1.4166 16.1195 
2.4899 1.41797 16.1375 
2.49239 1.41935 16.1555 
2.4899 1.42476 16.1375 
2.49239 1.42614 16.1555 
2.4899 1.43154 16.1375 
2.49239 1.43293 16.1555 
2.49488 1.43432 16.1736 
2.49488 1.44112 16.1736 
2.49488 1.44792 16.1736 
2.49737 1.44933 16.1917 
2.49737 1.45613 16.1917 
2.49737 1.46293 16.1917 
2.49737 1.46974 16.1917 
2.52004 1.75729 16.3562 
2.52004 1.76415 16.3562 
2.52004 1.77102 16.3562 
2.52004 1.77788 16.3562 
2.5175 1.86529 16.3378 
2.5175 1.87215 16.3378 
2.5175 1.879 16.3378 
2.5175 1.88586 16.3378 
2.5175 1.89272 16.3378 
2.5175 1.89958 16.3378 
2.5175 1.90643 16.3378 
2.5175 1.91329 16.3378 
2.51497 1.95938 16.3194 
2.5175 1.9613 16.3378 
2.51497 1.96623 16.3194 
2.5175 1.96815 16.3378 
2.51497 1.97308 16.3194 
2.4275 1.27908 15.8083 
2.43032 1.2803 15.8256 
2.43032 1.28697 15.8256 
2.43314 1.2882 15.843 
2.43314 1.29487 15.843 
2.43597 1.29611 15.8603 
2.4388 1.29734 15.8778 
2.43597 1.30279 15.8603 
2.4388 1.30403 15.8778 
2.44163 1.30528 15.8952 
2.45877 1.33974 16.0007 
2.46164 1.34103 16.0184 
2.46164 1.34777 16.0184 
2.46452 1.34907 16.0361 
2.46164 1.35451 16.0184 
2.46452 1.35581 16.0361 
2.46741 1.35712 16.0538 
2.46452 1.36256 16.0361 
2.46741 1.36387 16.0538 
2.4703 1.36519 16.0716 
2.46741 1.37062 16.0538 
2.4703 1.37195 16.0716 
2.4703 1.37871 16.0716 
2.4732 1.38004 16.0895 
2.4732 1.3868 16.0895 
2.4761 1.38814 16.1073 
2.4761 1.39492 16.1073 
2.47901 1.39627 16.1252 
2.48193 1.39762 16.1432 
2.4761 1.40169 16.1073 
2.47901 1.40304 16.1252 
2.48193 1.4044 16.1432 
2.47901 1.40982 16.1252 
2.48193 1.41119 16.1432 
2.48485 1.41256 16.1611 
2.48193 1.41797 16.1432 
2.48485 1.41935 16.1611 
2.48193 1.42476 16.1432 
2.48485 1.42614 16.1611 
2.48777 1.42753 16.1791 
2.48485 1.43293 16.1611 
2.48777 1.43432 16.1791 
2.48777 1.44112 16.1791 
2.4907 1.44252 16.1972 
2.48777 1.44792 16.1791 
2.4907 1.44933 16.1972 
2.4907 1.45613 16.1972 
2.4907 1.46293 16.1972 
2.49364 1.48479 16.2152 
2.49364 1.4916 16.2152 
2.49658 1.49987 16.2333 
2.49658 1.50669 16.2333 
2.49953 1.52181 16.2515 
2.51436 1.85157 16.3427 
2.51436 1.85843 16.3427 
2.51436 1.86529 16.3427 
2.51436 1.87215 16.3427 
2.51436 1.879 16.3427 
2.51436 1.88586 16.3427 
2.51436 1.89272 16.3427 
2.51436 1.89958 16.3427 
2.51436 1.90643 16.3427 
2.51436 1.93386 16.3427 
2.51138 1.95938 16.3244 
2.51138 1.96623 16.3244 
2.51138 1.97308 16.3244 
2.51138 1.97993 16.3244 
2.51138 1.99363 16.3244 
2.41159 1.27908 15.8155 
2.41482 1.2803 15.8328 
2.41482 1.28697 15.8328 
2.41806 1.2882 15.8501 
2.41806 1.29487 15.8501 
2.42131 1.29611 15.8674 
2.42456 1.29734 15.8847 
2.42782 1.30528 15.9021 
2.43108 1.30653 15.9195 
2.44091 1.32373 15.972 
2.44749 1.33974 16.0071 
2.4508 1.34103 16.0247 
2.4508 1.34777 16.0247 
2.4541 1.34907 16.0424 
2.4541 1.35581 16.0424 
2.45742 1.35712 16.0601 
2.45742 1.36387 16.0601 
2.46074 1.36519 16.0778 
2.45742 1.37062 16.0601 
2.46074 1.37195 16.0778 
2.46407 1.38004 16.0955 
2.4674 1.38137 16.1133 
2.46407 1.3868 16.0955 
2.4674 1.38814 16.1133 
2.4674 1.39492 16.1133 
2.47074 1.39627 16.1312 
2.47409 1.39762 16.149 
2.47074 1.40304 16.1312 
2.47409 1.4044 16.149 
2.47074 1.40982 16.1312 
2.47409 1.41119 16.149 
2.47744 1.41256 16.1669 
2.47409 1.41797 16.149 
2.47744 1.41935 16.1669 
2.4808 1.42073 16.1848 
2.47744 1.42614 16.1669 
2.4808 1.42753 16.1848 
2.47744 1.43293 16.1669 
2.4808 1.43432 16.1848 
2.4808 1.44112 16.1848 
2.48417 1.44252 16.2028 
2.4808 1.44792 16.1848 
2.48417 1.44933 16.2028 
2.48417 1.45613 16.2028 
2.48417 1.46293 16.2028 
2.48417 1.46974 16.2028 
2.48754 1.48479 16.2208 
2.48754 1.4916 16.2208 
2.4943 1.52863 16.2569 
2.4943 1.53546 16.2569 
2.5011 1.59999 16.2931 
2.51133 1.831 16.3477 
2.51133 1.83786 16.3477 
2.51133 1.84471 16.3477 
2.51133 1.85157 16.3477 
2.51133 1.85843 16.3477 
2.51133 1.88586 16.3477 
2.51133 1.89272 16.3477 
2.51133 1.89958 16.3477 
2.51133 1.93386 16.3477 
2.51133 1.94072 16.3477 
2.51133 1.94758 16.3477 
2.51133 1.95444 16.3477 
2.50791 1.95938 16.3295 
2.51133 1.9613 16.3477 
2.50791 1.96623 16.3295 
2.51133 1.96815 16.3477 
2.50791 1.97308 16.3295 
2.51133 1.97501 16.3477 
2.50791 1.97993 16.3295 
2.50791 1.98678 16.3295 
2.50791 1.99363 16.3295 
2.4977 2.0561 16.275 
2.4977 2.06293 16.275 
2.4977 2.06977 16.275 
2.4977 2.0766 16.275 
2.4977 2.08343 16.275 
2.4977 2.09026 16.275 
2.5011 2.0923 16.2931 
2.5011 2.09914 16.2931 
2.39586 1.27908 15.8232 
2.39951 1.2803 15.8404 
2.39951 1.28697 15.8404 
2.40316 1.2882 15.8576 
2.40316 1.29487 15.8576 
2.40682 1.29611 15.8748 
2.41049 1.29734 15.8921 
2.40682 1.30279 15.8748 
2.41417 1.30528 15.9094 
2.44011 1.34103 16.0314 
2.44011 1.34777 16.0314 
2.44384 1.34907 16.049 
2.44758 1.35037 16.0666 
2.44384 1.35581 16.049 
2.44758 1.35712 16.0666 
2.44758 1.36387 16.0666 
2.45133 1.36519 16.0842 
2.45133 1.37195 16.0842 
2.45508 1.37327 16.1019 
2.45508 1.38004 16.1019 
2.45885 1.38137 16.1196 
2.45885 1.38814 16.1196 
2.46262 1.38949 16.1373 
2.45885 1.39492 16.1196 
2.46262 1.39627 16.1373 
2.46639 1.39762 16.1551 
2.46262 1.40304 16.1373 
2.46639 1.4044 16.1551 
2.46639 1.41119 16.1551 
2.47018 1.41256 16.1729 
2.46639 1.41797 16.1551 
2.47018 1.41935 16.1729 
2.47018 1.42614 16.1729 
2.47397 1.42753 16.1907 
2.47397 1.43432 16.1907 
2.47397 1.44112 16.1907 
2.47777 1.44252 16.2086 
2.47777 1.44933 16.2086 
2.47777 1.45613 16.2086 
2.48158 1.45755 16.2265 
2.47777 1.46293 16.2086 
2.48158 1.46436 16.2265 
2.48158 1.47117 16.2265 
2.48158 1.47798 16.2265 
2.48158 1.48479 16.2265 
2.48921 1.52863 16.2624 
2.50843 1.81728 16.3528 
2.50843 1.82414 16.3528 
2.50843 1.831 16.3528 
2.50843 1.85843 16.3528 
2.50843 1.86529 16.3528 
2.50843 1.87215 16.3528 
2.50843 1.879 16.3528 
2.50843 1.88586 16.3528 
2.50843 1.89272 16.3528 
2.50843 1.89958 16.3528 
2.50843 1.90643 16.3528 
2.50843 1.91329 16.3528 
2.50843 1.94072 16.3528 
2.50843 1.94758 16.3528 
2.50843 1.95444 16.3528 
2.50457 1.95938 16.3347 
2.50843 1.9613 16.3528 
2.50457 1.96623 16.3347 
2.50843 1.96815 16.3528 
2.50457 1.97308 16.3347 
2.50843 1.97501 16.3528 
2.50457 1.97993 16.3347 
2.50843 1.98187 16.3528 
2.50457 1.98678 16.3347 
2.50457 1.99363 16.3347 
2.50457 2.00048 16.3347 
2.50457 2.00733 16.3347 
2.50457 2.01418 16.3347 
2.49304 2.04927 16.2804 
2.49304 2.0561 16.2804 
2.49304 2.06293 16.2804 
2.49304 2.06977 16.2804 
2.49304 2.0766 16.2804 
2.49688 2.07862 16.2985 
2.49304 2.08343 16.2804 
2.49688 2.08546 16.2985 
2.49304 2.09026 16.2804 
2.49688 2.0923 16.2985 
2.50072 2.09435 16.3166 
2.49304 2.09709 16.2804 
2.49688 2.09914 16.2985 
2.50072 2.10119 16.3166 
2.38031 1.27908 15.8312 
2.38438 1.2803 15.8483 
2.38438 1.28697 15.8483 
2.38845 1.2882 15.8654 
2.39252 1.29611 15.8826 
2.39661 1.29734 15.8997 
2.4007 1.30528 15.9169 
2.42958 1.34103 16.0383 
2.42958 1.34777 16.0383 
2.43374 1.34907 16.0558 
2.4379 1.35037 16.0733 
2.43374 1.35581 16.0558 
2.4379 1.35712 16.0733 
2.4379 1.36387 16.0733 
2.44207 1.36519 16.0908 
2.44207 1.37195 16.0908 
2.44626 1.37327 16.1084 
2.44626 1.38004 16.1084 
2.45044 1.38137 16.126 
2.45044 1.38814 16.126 
2.45464 1.38949 16.1436 
2.45044 1.39492 16.126 
2.45464 1.39627 16.1436 
2.45885 1.39762 16.1613 
2.45464 1.40304 16.1436 
2.45885 1.4044 16.1613 
2.46306 1.40577 16.179 
2.45885 1.41119 16.1613 
2.45885 1.41797 16.1613 
2.46728 1.42753 16.1967 
2.46728 1.43432 16.1967 
2.47151 1.43572 16.2145 
2.46728 1.44112 16.1967 
2.47151 1.44252 16.2145 
2.47151 1.44933 16.2145 
2.47151 1.45613 16.2145 
2.47151 1.46293 16.2145 
2.47575 1.46436 16.2323 
2.47151 1.46974 16.2145 
2.47575 1.47117 16.2323 
2.47575 1.47798 16.2323 
2.47575 1.48479 16.2323 
2.47575 1.4916 16.2323 
2.49279 1.59999 16.3039 
2.49279 1.60683 16.3039 
2.50135 1.69904 16.3399 
2.50565 1.74185 16.358 
2.50565 1.74871 16.358 
2.50565 1.82414 16.358 
2.50565 1.831 16.358 
2.50565 1.83786 16.358 
2.50565 1.84471 16.358 
2.50565 1.85157 16.358 
2.50565 1.85843 16.358 
2.50565 1.86529 16.358 
2.50565 1.87215 16.358 
2.50565 1.879 16.358 
2.50565 1.88586 16.358 
2.50565 1.89272 16.358 
2.50565 1.89958 16.358 
2.50565 1.90643 16.358 
2.50565 1.91329 16.358 
2.50565 1.93386 16.358 
2.50565 1.94072 16.358 
2.50135 1.94567 16.3399 
2.50565 1.94758 16.358 
2.50135 1.95253 16.3399 
2.50565 1.95444 16.358 
2.50135 1.95938 16.3399 
2.50565 1.9613 16.358 
2.50135 1.96623 16.3399 
2.50565 1.96815 16.358 
2.50135 1.97308 16.3399 
2.50565 1.97501 16.358 
2.50135 1.97993 16.3399 
2.50565 1.98187 16.358 
2.50135 1.98678 16.3399 
2.50565 1.98873 16.358 
2.50135 1.99363 16.3399 
2.50135 2.00048 16.3399 
2.49707 2.01906 16.3219 
2.49707 2.0259 16.3219 
2.48851 2.04927 16.286 
2.48851 2.0561 16.286 
2.48851 2.06293 16.286 
2.49279 2.06495 16.3039 
2.48425 2.06775 16.2681 
2.49279 2.07179 16.3039 
2.48851 2.0766 16.286 
2.49279 2.07862 16.3039 
2.49707 2.08066 16.3219 
2.50135 2.08269 16.3399 
2.50565 2.08473 16.358 
2.48851 2.08343 16.286 
2.49279 2.08546 16.3039 
2.49707 2.0875 16.3219 
2.50135 2.08954 16.3399 
2.48851 2.09026 16.286 
2.49279 2.0923 16.3039 
2.49707 2.09435 16.3219 
2.48851 2.09709 16.286 
2.49279 2.09914 16.3039 
2.49707 2.10119 16.3219 
2.49279 2.10597 16.3039 
2.36944 1.2803 15.8566 
2.36944 1.28697 15.8566 
2.37392 1.2882 15.8736 
2.37392 1.29487 15.8736 
2.37841 1.29611 15.8907 
2.38291 1.29734 15.9077 
2.37841 1.30279 15.8907 
2.38742 1.30528 15.9248 
2.39194 1.30653 15.942 
2.40554 1.32373 15.9936 
2.41009 1.33173 16.0108 
2.41465 1.33301 16.0281 
2.41922 1.33429 16.0454 
2.41922 1.34103 16.0454 
2.4238 1.34232 16.0628 
2.4238 1.34907 16.0628 
2.42839 1.35037 16.0802 
2.4238 1.35581 16.0628 
2.42839 1.35712 16.0802 
2.43298 1.36519 16.0976 
2.43759 1.37327 16.1151 
2.4422 1.3746 16.1326 
2.43759 1.38004 16.1151 
2.4422 1.38137 16.1326 
2.44682 1.38271 16.1501 
2.4422 1.38814 16.1326 
2.44682 1.38949 16.1501 
2.45145 1.39084 16.1677 
2.44682 1.39627 16.1501 
2.45145 1.39762 16.1677 
2.44682 1.40304 16.1501 
2.45145 1.4044 16.1677 
2.45609 1.40577 16.1853 
2.45145 1.41119 16.1677 
2.45609 1.41256 16.1853 
2.46074 1.41393 16.2029 
2.45145 1.41797 16.1677 
2.45609 1.41935 16.1853 
2.46074 1.42073 16.2029 
2.45609 1.42614 16.1853 
2.46074 1.42753 16.2029 
2.46074 1.43432 16.2029 
2.4654 1.43572 16.2206 
2.46074 1.44112 16.2029 
2.4654 1.44252 16.2206 
2.4654 1.44933 16.2206 
2.4654 1.45613 16.2206 
2.47007 1.45755 16.2383 
2.4654 1.46293 16.2206 
2.47007 1.46436 16.2383 
2.4654 1.46974 16.2206 
2.47007 1.48479 16.2383 
2.47007 1.4916 16.2383 
2.47943 1.52863 16.2738 
2.47943 1.53546 16.2738 
2.49827 1.69904 16.3453 
2.49827 1.70589 16.3453 
2.503 1.72813 16.3632 
2.503 1.81043 16.3632 
2.503 1.81728 16.3632 
2.503 1.82414 16.3632 
2.503 1.831 16.3632 
2.503 1.83786 16.3632 
2.50774 1.85339 16.3812 
2.50774 1.86025 16.3812 
2.503 1.86529 16.3632 
2.503 1.87215 16.3632 
2.503 1.879 16.3632 
2.503 1.88586 16.3632 
2.503 1.89272 16.3632 
2.503 1.89958 16.3632 
2.503 1.90643 16.3632 
2.503 1.91329 16.3632 
2.503 1.93386 16.3632 
2.503 1.94072 16.3632 
2.503 1.94758 16.3632 
2.503 1.95444 16.3632 
2.49827 1.95938 16.3453 
2.503 1.9613 16.3632 
2.503 1.96815 16.3632 
2.49827 1.97308 16.3453 
2.503 1.97501 16.3632 
2.49827 1.97993 16.3453 
2.503 1.98187 16.3632 
2.503 1.98873 16.3632 
2.49827 1.99363 16.3453 
2.503 1.99558 16.3632 
2.49827 2.00048 16.3453 
2.49827 2.00733 16.3453 
2.49827 2.01418 16.3453 
2.49354 2.0259 16.3274 
2.48883 2.0376 16.3095 
2.48883 2.04444 16.3095 
2.48413 2.04927 16.2916 
2.48883 2.05127 16.3095 
2.47943 2.0541 16.2738 
2.48413 2.0561 16.2916 
2.48883 2.05811 16.3095 
2.47943 2.06092 16.2738 
2.48413 2.06293 16.2916 
2.48883 2.06495 16.3095 
2.47943 2.06775 16.2738 
2.48413 2.06977 16.2916 
2.48883 2.07179 16.3095 
2.49354 2.07381 16.3274 
2.48413 2.0766 16.2916 
2.48883 2.07862 16.3095 
2.49354 2.08066 16.3274 
2.49827 2.08269 16.3453 
2.503 2.08473 16.3632 
2.50774 2.08678 16.3812 
2.48413 2.08343 16.2916 
2.48883 2.08546 16.3095 
2.49354 2.0875 16.3274 
2.49827 2.08954 16.3453 
2.503 2.09159 16.3632 
2.50774 2.09364 16.3812 
2.48413 2.09026 16.2916 
2.48883 2.0923 16.3095 
2.49354 2.09435 16.3274 
2.49827 2.0964 16.3453 
2.503 2.09845 16.3632 
2.48413 2.09709 16.2916 
2.48883 2.09914 16.3095 
2.49354 2.10119 16.3274 
2.49827 2.10325 16.3453 
2.34983 1.27908 15.8484 
2.35471 1.2803 15.8653 
2.3596 1.2882 15.8822 
2.36451 1.28942 15.8991 
2.36451 1.29611 15.8991 
2.36942 1.29734 15.916 
2.37434 1.29858 15.933 
2.38915 1.31575 15.9842 
2.39411 1.32373 16.0013 
2.39908 1.325 16.0185 
2.40406 1.32628 16.0356 
2.40406 1.33301 16.0356 
2.40904 1.33429 16.0529 
2.40904 1.34103 16.0529 
2.41404 1.34232 16.0701 
2.41404 1.34907 16.0701 
2.41904 1.35037 16.0874 
2.41904 1.35712 16.0874 
2.42406 1.35843 16.1047 
2.42406 1.36519 16.1047 
2.42908 1.36651 16.122 
2.42908 1.37327 16.122 
2.43412 1.3746 16.1394 
2.43412 1.38137 16.1394 
2.43916 1.38271 16.1568 
2.43412 1.38814 16.1394 
2.43916 1.38949 16.1568 
2.44422 1.39084 16.1743 
2.43916 1.39627 16.1568 
2.44422 1.39762 16.1743 
2.43916 1.40304 16.1568 
2.44422 1.4044 16.1743 
2.44928 1.40577 16.1918 
2.44422 1.41119 16.1743 
2.44928 1.41256 16.1918 
2.45436 1.41393 16.2093 
2.44928 1.41935 16.1918 
2.45436 1.42073 16.2093 
2.45944 1.42211 16.2269 
2.45436 1.42753 16.2093 
2.45944 1.42891 16.2269 
2.45436 1.43432 16.2093 
2.45944 1.43572 16.2269 
2.45944 1.44252 16.2269 
2.46453 1.44393 16.2444 
2.45944 1.44933 16.2269 
2.46453 1.45074 16.2444 
2.45944 1.45613 16.2269 
2.46453 1.45755 16.2444 
2.45944 1.46293 16.2269 
2.46453 1.47117 16.2444 
2.46453 1.47798 16.2444 
2.46453 1.48479 16.2444 
2.47475 1.52181 16.2797 
2.47475 1.52863 16.2797 
2.49531 1.67164 16.3507 
2.49531 1.67849 16.3507 
2.49531 1.68534 16.3507 
2.49531 1.69219 16.3507 
2.49531 1.69904 16.3507 
2.49531 1.70589 16.3507 
2.50047 1.71442 16.3685 
2.50047 1.72128 16.3685 
2.50047 1.72813 16.3685 
2.50047 1.73499 16.3685 
2.50047 1.74185 16.3685 
2.50565 1.75042 16.3864 
2.50047 1.75557 16.3685 
2.50047 1.79671 16.3685 
2.50047 1.80357 16.3685 
2.50047 1.81043 16.3685 
2.50047 1.81728 16.3685 
2.50047 1.82414 16.3685 
2.50047 1.831 16.3685 
2.50047 1.83786 16.3685 
2.50047 1.84471 16.3685 
2.50047 1.85157 16.3685 
2.50047 1.85843 16.3685 
2.50047 1.86529 16.3685 
2.50047 1.87215 16.3685 
2.50047 1.879 16.3685 
2.50047 1.88586 16.3685 
2.50047 1.89272 16.3685 
2.50047 1.89958 16.3685 
2.50047 1.90643 16.3685 
2.50047 1.91329 16.3685 
2.50047 1.92701 16.3685 
2.50047 1.93386 16.3685 
2.50047 1.94072 16.3685 
2.50565 1.94263 16.3864 
2.49531 1.94567 16.3507 
2.50047 1.94758 16.3685 
2.50565 1.94949 16.3864 
2.49531 1.95253 16.3507 
2.50047 1.95444 16.3685 
2.50565 1.95635 16.3864 
2.49531 1.95938 16.3507 
2.50047 1.9613 16.3685 
2.50565 1.96322 16.3864 
2.49531 1.96623 16.3507 
2.50047 1.96815 16.3685 
2.50565 1.97008 16.3864 
2.50047 1.97501 16.3685 
2.50047 1.98187 16.3685 
2.50047 1.98873 16.3685 
2.49531 1.99363 16.3507 
2.50047 1.99558 16.3685 
2.49531 2.00048 16.3507 
2.50047 2.00244 16.3685 
2.49531 2.00733 16.3507 
2.49531 2.01418 16.3507 
2.49531 2.02103 16.3507 
2.49015 2.0259 16.3329 
2.49015 2.03275 16.3329 
2.48501 2.0376 16.3151 
2.47988 2.04244 16.2974 
2.48501 2.04444 16.3151 
2.47988 2.04927 16.2974 
2.48501 2.05127 16.3151 
2.47475 2.0541 16.2797 
2.47988 2.0561 16.2974 
2.48501 2.05811 16.3151 
2.49015 2.06012 16.3329 
2.46964 2.05892 16.2621 
2.47475 2.06092 16.2797 
2.47988 2.06293 16.2974 
2.48501 2.06495 16.3151 
2.49015 2.06697 16.3329 
2.49531 2.06899 16.3507 
2.46964 2.06573 16.2621 
2.47475 2.06775 16.2797 
2.47988 2.06977 16.2974 
2.48501 2.07179 16.3151 
2.49015 2.07381 16.3329 
2.49531 2.07584 16.3507 
2.47988 2.0766 16.2974 
2.48501 2.07862 16.3151 
2.49015 2.08066 16.3329 
2.49531 2.08269 16.3507 
2.50047 2.08473 16.3685 
2.50565 2.08678 16.3864 
2.51083 2.08883 16.4043 
2.47988 2.08343 16.2974 
2.48501 2.08546 16.3151 
2.49015 2.0875 16.3329 
2.49531 2.08954 16.3507 
2.50047 2.09159 16.3685 
2.50565 2.09364 16.3864 
2.51083 2.0957 16.4043 
2.47988 2.09026 16.2974 
2.48501 2.0923 16.3151 
2.49015 2.09435 16.3329 
2.49531 2.0964 16.3507 
2.50047 2.09845 16.3685 
2.50565 2.10051 16.3864 
2.47988 2.09709 16.2974 
2.48501 2.09914 16.3151 
2.49015 2.10119 16.3329 
2.49531 2.10325 16.3507 
2.3402 1.2803 15.8743 
2.3455 1.2882 15.8911 
2.3508 1.28942 15.9079 
2.3508 1.29611 15.9079 
2.35612 1.29734 15.9247 
2.36145 1.29858 15.9416 
2.38825 1.325 16.0264 
2.39364 1.33301 16.0434 
2.39904 1.33429 16.0605 
2.39904 1.34103 16.0605 
2.40445 1.34232 16.0776 
2.40445 1.34907 16.0776 
2.40988 1.35037 16.0948 
2.40988 1.35712 16.0948 
2.41531 1.35843 16.112 
2.41531 1.36519 16.112 
2.42075 1.36651 16.1292 
2.42621 1.36783 16.1464 
2.42075 1.37327 16.1292 
2.42621 1.3746 16.1464 
2.42621 1.38137 16.1464 
2.43167 1.38271 16.1637 
2.43714 1.38405 16.1811 
2.42621 1.38814 16.1464 
2.43167 1.38949 16.1637 
2.43714 1.39084 16.1811 
2.43167 1.39627 16.1637 
2.43714 1.39762 16.1811 
2.43714 1.4044 16.1811 
2.44813 1.40713 16.2158 
2.43714 1.41119 16.1811 
2.44263 1.41256 16.1984 
2.44813 1.41393 16.2158 
2.45363 1.4153 16.2332 
2.44263 1.41935 16.1984 
2.44813 1.42073 16.2158 
2.45363 1.42211 16.2332 
2.44813 1.42753 16.2158 
2.45363 1.42891 16.2332 
2.44813 1.43432 16.2158 
2.45363 1.43572 16.2332 
2.45915 1.43711 16.2507 
2.44813 1.44112 16.2158 
2.45363 1.44252 16.2332 
2.45915 1.44393 16.2507 
2.45363 1.44933 16.2332 
2.45915 1.45074 16.2507 
2.45363 1.45613 16.2332 
2.45915 1.45755 16.2507 
2.45363 1.46293 16.2332 
2.45915 1.47117 16.2507 
2.45915 1.47798 16.2507 
2.45915 1.48479 16.2507 
2.49248 1.67164 16.3562 
2.49248 1.67849 16.3562 
2.49248 1.68534 16.3562 
2.49248 1.69904 16.3562 
2.49807 1.7007 16.3739 
2.49807 1.70756 16.3739 
2.49807 1.71442 16.3739 
2.49807 1.72128 16.3739 
2.49807 1.72813 16.3739 
2.49807 1.73499 16.3739 
2.49807 1.74185 16.3739 
2.49807 1.74871 16.3739 
2.50368 1.75042 16.3916 
2.49807 1.75557 16.3739 
2.49807 1.76242 16.3739 
2.49807 1.76928 16.3739 
2.49807 1.77614 16.3739 
2.49807 1.783 16.3739 
2.49807 1.78985 16.3739 
2.49807 1.79671 16.3739 
2.49807 1.80357 16.3739 
2.49807 1.81043 16.3739 
2.49807 1.81728 16.3739 
2.50368 1.81907 16.3916 
2.49807 1.82414 16.3739 
2.50368 1.82593 16.3916 
2.49807 1.831 16.3739 
2.50368 1.8328 16.3916 
2.49807 1.83786 16.3739 
2.50368 1.83966 16.3916 
2.49807 1.84471 16.3739 
2.50368 1.84652 16.3916 
2.49807 1.85157 16.3739 
2.50368 1.85339 16.3916 
2.49807 1.85843 16.3739 
2.50368 1.86025 16.3916 
2.49807 1.86529 16.3739 
2.50368 1.86712 16.3916 
2.49807 1.87215 16.3739 
2.50368 1.87398 16.3916 
2.49807 1.879 16.3739 
2.50368 1.88085 16.3916 
2.49807 1.88586 16.3739 
2.50368 1.88771 16.3916 
2.49807 1.89272 16.3739 
2.50368 1.89457 16.3916 
2.49807 1.89958 16.3739 
2.50368 1.90144 16.3916 
2.49807 1.90643 16.3739 
2.49807 1.91329 16.3739 
2.50368 1.92203 16.3916 
2.49807 1.92701 16.3739 
2.50368 1.9289 16.3916 
2.49807 1.93386 16.3739 
2.50368 1.93576 16.3916 
2.49807 1.94072 16.3739 
2.50368 1.94263 16.3916 
2.49248 1.94567 16.3562 
2.49807 1.94758 16.3739 
2.50368 1.94949 16.3916 
2.49248 1.95253 16.3562 
2.49807 1.95444 16.3739 
2.50368 1.95635 16.3916 
2.49248 1.95938 16.3562 
2.49807 1.9613 16.3739 
2.50368 1.96322 16.3916 
2.49807 1.96815 16.3739 
2.50368 1.97008 16.3916 
2.49807 1.97501 16.3739 
2.50368 1.97695 16.3916 
2.49807 1.98187 16.3739 
2.50368 1.98381 16.3916 
2.49807 1.98873 16.3739 
2.49807 1.99558 16.3739 
2.49807 2.00244 16.3739 
2.49248 2.00733 16.3562 
2.49807 2.0093 16.3739 
2.49248 2.01418 16.3562 
2.49248 2.02103 16.3562 
2.4869 2.0259 16.3385 
2.4869 2.03275 16.3385 
2.48133 2.0376 16.3209 
2.4869 2.03959 16.3385 
2.47577 2.04244 16.3033 
2.48133 2.04444 16.3209 
2.4869 2.04644 16.3385 
2.47577 2.04927 16.3033 
2.48133 2.05127 16.3209 
2.4869 2.05328 16.3385 
2.47022 2.0541 16.2857 
2.47577 2.0561 16.3033 
2.48133 2.05811 16.3209 
2.4869 2.06012 16.3385 
2.49248 2.06214 16.3562 
2.46468 2.05892 16.2682 
2.47022 2.06092 16.2857 
2.47577 2.06293 16.3033 
2.48133 2.06495 16.3209 
2.4869 2.06697 16.3385 
2.49248 2.06899 16.3562 
2.49807 2.07102 16.3739 
2.46468 2.06573 16.2682 
2.47022 2.06775 16.2857 
2.47577 2.06977 16.3033 
2.48133 2.07179 16.3209 
2.4869 2.07381 16.3385 
2.49248 2.07584 16.3562 
2.49807 2.07788 16.3739 
2.50368 2.07991 16.3916 
2.50929 2.08196 16.4094 
2.51492 2.084 16.4272 
2.52056 2.08605 16.445 
2.5262 2.0881 16.4629 
2.47577 2.0766 16.3033 
2.48133 2.07862 16.3209 
2.4869 2.08066 16.3385 
2.49248 2.08269 16.3562 
2.49807 2.08473 16.3739 
2.50368 2.08678 16.3916 
2.50929 2.08883 16.4094 
2.51492 2.09088 16.4272 
2.52056 2.09294 16.445 
2.5262 2.095 16.4629 
2.47577 2.08343 16.3033 
2.48133 2.08546 16.3209 
2.4869 2.0875 16.3385 
2.49248 2.08954 16.3562 
2.49807 2.09159 16.3739 
2.50368 2.09364 16.3916 
2.50929 2.0957 16.4094 
2.51492 2.09776 16.4272 
2.52056 2.09982 16.445 
2.5262 2.10189 16.4629 
2.4869 2.09435 16.3385 
2.49248 2.0964 16.3562 
2.49807 2.09845 16.3739 
2.50368 2.10051 16.3916 
2.50929 2.10257 16.4094 
2.51492 2.10463 16.4272 
2.49248 2.10325 16.3562 
2.32021 1.27908 15.8671 
2.3259 1.2803 15.8837 
2.33161 1.2882 15.9003 
2.33732 1.28942 15.917 
2.33732 1.29611 15.917 
2.34304 1.29734 15.9337 
2.34878 1.30528 15.9504 
2.35452 1.30653 15.9671 
2.36605 1.31575 16.0008 
2.37762 1.325 16.0345 
2.38342 1.33301 16.0514 
2.38923 1.33429 16.0684 
2.38923 1.34103 16.0684 
2.39506 1.34232 16.0854 
2.40089 1.35037 16.1024 
2.40674 1.35167 16.1194 
2.40089 1.35712 16.1024 
2.40674 1.35843 16.1194 
2.40674 1.36519 16.1194 
2.41259 1.36651 16.1365 
2.41846 1.36783 16.1537 
2.41259 1.37327 16.1365 
2.41846 1.3746 16.1537 
2.42434 1.37593 16.1708 
2.41846 1.38137 16.1537 
2.42434 1.38271 16.1708 
2.43024 1.38405 16.188 
2.41846 1.38814 16.1537 
2.42434 1.38949 16.1708 
2.43024 1.39084 16.188 
2.42434 1.39627 16.1708 
2.43024 1.39762 16.188 
2.43024 1.4044 16.188 
2.43614 1.40577 16.2052 
2.44205 1.40713 16.2225 
2.43614 1.41256 16.2052 
2.44205 1.41393 16.2225 
2.44798 1.4153 16.2398 
2.43614 1.41935 16.2052 
2.44205 1.42073 16.2225 
2.44798 1.42211 16.2398 
2.44205 1.42753 16.2225 
2.44798 1.42891 16.2398 
2.44205 1.43432 16.2225 
2.44798 1.43572 16.2398 
2.45392 1.43711 16.2571 
2.44798 1.44252 16.2398 
2.45392 1.44393 16.2571 
2.44798 1.44933 16.2398 
2.45392 1.45074 16.2571 
2.44798 1.45613 16.2398 
2.45392 1.45755 16.2571 
2.44798 1.46293 16.2398 
2.45392 1.47117 16.2571 
2.45392 1.47798 16.2571 
2.45987 1.49987 16.2744 
2.45987 1.50669 16.2744 
2.46583 1.51498 16.2918 
2.46583 1.52181 16.2918 
2.46583 1.52863 16.2918 
2.47778 1.58632 16.3267 
2.47778 1.59316 16.3267 
2.47778 1.59999 16.3267 
2.47778 1.60683 16.3267 
2.47778 1.61367 16.3267 
2.48378 1.64262 16.3442 
2.48378 1.64947 16.3442 
2.48378 1.65631 16.3442 
2.48979 1.66478 16.3617 
2.48979 1.67164 16.3617 
2.48979 1.67849 16.3617 
2.48979 1.68534 16.3617 
2.48979 1.69219 16.3617 
2.48979 1.69904 16.3617 
2.48979 1.70589 16.3617 
2.4958 1.71442 16.3793 
2.4958 1.72128 16.3793 
2.4958 1.72813 16.3793 
2.4958 1.73499 16.3793 
2.4958 1.74185 16.3793 
2.4958 1.74871 16.3793 
2.50184 1.75042 16.3969 
2.4958 1.75557 16.3793 
2.50184 1.75729 16.3969 
2.4958 1.76242 16.3793 
2.4958 1.783 16.3793 
2.4958 1.78985 16.3793 
2.4958 1.79671 16.3793 
2.50184 1.79847 16.3969 
2.4958 1.80357 16.3793 
2.50184 1.80534 16.3969 
2.4958 1.81043 16.3793 
2.50184 1.8122 16.3969 
2.4958 1.81728 16.3793 
2.50184 1.81907 16.3969 
2.4958 1.82414 16.3793 
2.50184 1.82593 16.3969 
2.4958 1.831 16.3793 
2.50184 1.8328 16.3969 
2.4958 1.83786 16.3793 
2.50184 1.83966 16.3969 
2.4958 1.84471 16.3793 
2.50184 1.84652 16.3969 
2.4958 1.85157 16.3793 
2.50184 1.85339 16.3969 
2.4958 1.85843 16.3793 
2.50184 1.86025 16.3969 
2.4958 1.86529 16.3793 
2.50184 1.86712 16.3969 
2.4958 1.87215 16.3793 
2.50184 1.87398 16.3969 
2.4958 1.879 16.3793 
2.50184 1.88085 16.3969 
2.4958 1.88586 16.3793 
2.50184 1.88771 16.3969 
2.4958 1.89272 16.3793 
2.50184 1.89457 16.3969 
2.4958 1.89958 16.3793 
2.50184 1.90144 16.3969 
2.4958 1.90643 16.3793 
2.50184 1.9083 16.3969 
2.4958 1.91329 16.3793 
2.50184 1.91517 16.3969 
2.4958 1.92015 16.3793 
2.50184 1.92203 16.3969 
2.4958 1.92701 16.3793 
2.50184 1.9289 16.3969 
2.4958 1.93386 16.3793 
2.50184 1.93576 16.3969 
2.4958 1.94072 16.3793 
2.50184 1.94263 16.3969 
2.4958 1.94758 16.3793 
2.50184 1.94949 16.3969 
2.4958 1.95444 16.3793 
2.50184 1.95635 16.3969 
2.4958 1.9613 16.3793 
2.50184 1.96322 16.3969 
2.4958 1.96815 16.3793 
2.50184 1.97008 16.3969 
2.4958 1.97501 16.3793 
2.50184 1.97695 16.3969 
2.4958 1.98187 16.3793 
2.50184 1.98381 16.3969 
2.4958 1.98873 16.3793 
2.4958 1.99558 16.3793 
2.4958 2.00244 16.3793 
2.48979 2.00733 16.3617 
2.4958 2.0093 16.3793 
2.48979 2.01418 16.3617 
2.48979 2.02103 16.3617 
2.48979 2.02789 16.3617 
2.48979 2.03474 16.3617 
2.47778 2.0376 16.3267 
2.48378 2.03959 16.3442 
2.48979 2.04159 16.3617 
1.61777 1.75771 13.818 
2.4718 2.04244 16.3092 
2.47778 2.04444 16.3267 
2.48378 2.04644 16.3442 
2.48979 2.04844 16.3617 
1.61777 1.76359 13.818 
1.6222 1.76507 13.8309 
2.4718 2.04927 16.3092 
2.47778 2.05127 16.3267 
2.48378 2.05328 16.3442 
2.48979 2.05529 16.3617 
2.46583 2.0541 16.2918 
2.4718 2.0561 16.3092 
2.47778 2.05811 16.3267 
2.48378 2.06012 16.3442 
2.48979 2.06214 16.3617 
2.4958 2.06416 16.3793 
2.45987 2.05892 16.2744 
2.46583 2.06092 16.2918 
2.4718 2.06293 16.3092 
2.47778 2.06495 16.3267 
2.48378 2.06697 16.3442 
2.48979 2.06899 16.3617 
2.4958 2.07102 16.3793 
2.50184 2.07305 16.3969 
2.50788 2.07508 16.4145 
2.51393 2.07712 16.4321 
2.52 2.07917 16.4498 
2.52608 2.08121 16.4676 
2.45987 2.06573 16.2744 
2.46583 2.06775 16.2918 
2.4718 2.06977 16.3092 
2.47778 2.07179 16.3267 
2.48378 2.07381 16.3442 
2.48979 2.07584 16.3617 
2.4958 2.07788 16.3793 
2.50184 2.07991 16.3969 
2.50788 2.08196 16.4145 
2.51393 2.084 16.4321 
2.52 2.08605 16.4498 
2.52608 2.0881 16.4676 
2.4718 2.0766 16.3092 
2.48378 2.08066 16.3442 
2.48979 2.08269 16.3617 
2.4958 2.08473 16.3793 
2.50184 2.08678 16.3969 
2.50788 2.08883 16.4145 
2.51393 2.09088 16.4321 
2.52 2.09294 16.4498 
2.52608 2.095 16.4676 
2.53217 2.09706 16.4853 
2.48378 2.0875 16.3442 
2.48979 2.08954 16.3617 
2.4958 2.09159 16.3793 
2.50184 2.09364 16.3969 
2.50788 2.0957 16.4145 
2.51393 2.09776 16.4321 
2.52 2.09982 16.4498 
2.52608 2.10189 16.4676 
2.51393 2.10463 16.4321 
2.52 2.1067 16.4498 
2.31184 1.2803 15.8934 
2.31794 1.2882 15.9099 
2.32406 1.28942 15.9264 
2.32406 1.29611 15.9264 
2.33018 1.29734 15.9429 
2.34247 1.30653 15.9761 
2.37961 1.33429 16.0765 
2.38585 1.33558 16.0934 
2.37961 1.34103 16.0765 
2.38585 1.34232 16.0934 
2.39209 1.34362 16.1102 
2.39209 1.35037 16.1102 
2.39835 1.35167 16.1271 
2.39835 1.35843 16.1271 
2.40462 1.35974 16.1441 
2.40462 1.36651 16.1441 
2.4109 1.36783 16.161 
2.40462 1.37327 16.1441 
2.4109 1.3746 16.161 
2.41719 1.37593 16.1781 
2.4109 1.38137 16.161 
2.41719 1.38271 16.1781 
2.4235 1.38405 16.1951 
2.4109 1.38814 16.161 
2.41719 1.38949 16.1781 
2.4235 1.39084 16.1951 
2.41719 1.39627 16.1781 
2.4235 1.39762 16.1951 
2.42981 1.39898 16.2122 
2.43614 1.40033 16.2293 
2.4235 1.4044 16.1951 
2.42981 1.40577 16.2122 
2.43614 1.40713 16.2293 
2.42981 1.41256 16.2122 
2.43614 1.41393 16.2293 
2.44248 1.4153 16.2464 
2.42981 1.41935 16.2122 
2.43614 1.42073 16.2293 
2.44248 1.42211 16.2464 
2.43614 1.42753 16.2293 
2.44248 1.42891 16.2464 
2.44248 1.43572 16.2464 
2.44884 1.43711 16.2636 
2.44248 1.44252 16.2464 
2.44884 1.44393 16.2636 
2.44248 1.44933 16.2464 
2.44884 1.45074 16.2636 
2.44884 1.45755 16.2636 
2.44884 1.46436 16.2636 
2.44248 1.46974 16.2464 
2.44884 1.47117 16.2636 
2.44884 1.47798 16.2636 
2.45521 1.49305 16.2808 
2.45521 1.49987 16.2808 
2.46158 1.50816 16.298 
2.46158 1.51498 16.298 
2.46158 1.52181 16.298 
2.46798 1.55745 16.3153 
2.46798 1.56428 16.3153 
2.46798 1.57111 16.3153 
2.46798 1.57794 16.3153 
2.47438 1.57948 16.3326 
2.47438 1.58632 16.3326 
2.47438 1.59316 16.3326 
2.47438 1.59999 16.3326 
2.47438 1.60683 16.3326 
2.47438 1.61367 16.3326 
2.4808 1.61525 16.3499 
2.4808 1.62209 16.3499 
2.4808 1.62894 16.3499 
2.4808 1.63578 16.3499 
2.4808 1.64262 16.3499 
2.4808 1.64947 16.3499 
2.48723 1.65793 16.3673 
2.48723 1.66478 16.3673 
2.48723 1.67164 16.3673 
2.48723 1.67849 16.3673 
2.48723 1.68534 16.3673 
2.48723 1.69219 16.3673 
2.48723 1.69904 16.3673 
2.48723 1.70589 16.3673 
2.49367 1.71442 16.3847 
2.49367 1.72128 16.3847 
2.49367 1.72813 16.3847 
2.49367 1.73499 16.3847 
2.49367 1.74185 16.3847 
2.50012 1.75729 16.4022 
2.49367 1.76242 16.3847 
2.50012 1.76415 16.4022 
2.49367 1.76928 16.3847 
2.50012 1.77102 16.4022 
2.49367 1.77614 16.3847 
2.50012 1.77788 16.4022 
2.49367 1.783 16.3847 
2.50012 1.78474 16.4022 
2.49367 1.78985 16.3847 
2.50012 1.79161 16.4022 
2.49367 1.79671 16.3847 
2.50012 1.79847 16.4022 
2.49367 1.80357 16.3847 
2.50012 1.80534 16.4022 
2.49367 1.81043 16.3847 
2.50012 1.8122 16.4022 
2.49367 1.81728 16.3847 
2.50012 1.81907 16.4022 
2.49367 1.82414 16.3847 
2.50012 1.82593 16.4022 
2.49367 1.831 16.3847 
2.50012 1.8328 16.4022 
2.49367 1.83786 16.3847 
2.50012 1.83966 16.4022 
2.49367 1.84471 16.3847 
2.50012 1.84652 16.4022 
2.49367 1.85157 16.3847 
2.50012 1.85339 16.4022 
2.49367 1.85843 16.3847 
2.50012 1.86025 16.4022 
2.49367 1.86529 16.3847 
2.50012 1.86712 16.4022 
2.49367 1.87215 16.3847 
2.50012 1.87398 16.4022 
2.49367 1.879 16.3847 
2.50012 1.88085 16.4022 
2.49367 1.88586 16.3847 
2.50012 1.88771 16.4022 
2.49367 1.89272 16.3847 
2.50012 1.89457 16.4022 
2.50012 1.90144 16.4022 
2.49367 1.90643 16.3847 
2.50012 1.9083 16.4022 
2.49367 1.91329 16.3847 
2.50012 1.91517 16.4022 
2.49367 1.92015 16.3847 
2.50012 1.92203 16.4022 
2.49367 1.92701 16.3847 
2.50012 1.9289 16.4022 
2.49367 1.93386 16.3847 
2.50012 1.93576 16.4022 
2.49367 1.94072 16.3847 
2.50012 1.94263 16.4022 
2.49367 1.94758 16.3847 
2.50012 1.94949 16.4022 
2.49367 1.95444 16.3847 
2.50012 1.95635 16.4022 
2.49367 1.9613 16.3847 
2.50012 1.96322 16.4022 
2.49367 1.96815 16.3847 
2.50012 1.97008 16.4022 
2.49367 1.97501 16.3847 
2.49367 1.98187 16.3847 
2.49367 1.98873 16.3847 
2.49367 1.99558 16.3847 
2.49367 2.00244 16.3847 
2.49367 2.0093 16.3847 
2.49367 2.01616 16.3847 
2.49367 2.02301 16.3847 
2.48723 2.02789 16.3673 
2.48723 2.03474 16.3673 
2.4808 2.03959 16.3499 
2.48723 2.04159 16.3673 
1.554 1.75771 13.8454 
2.47438 2.04444 16.3326 
2.4808 2.04644 16.3499 
2.48723 2.04844 16.3673 
2.46798 2.04927 16.3153 
2.47438 2.05127 16.3326 
2.4808 2.05328 16.3499 
2.48723 2.05529 16.3673 
2.49367 2.0573 16.3847 
2.50012 2.05932 16.4022 
2.50659 2.06134 16.4196 
2.46798 2.0561 16.3153 
2.47438 2.05811 16.3326 
2.4808 2.06012 16.3499 
2.48723 2.06214 16.3673 
2.49367 2.06416 16.3847 
2.50012 2.06618 16.4022 
2.50659 2.06821 16.4196 
2.51307 2.07025 16.4371 
2.51956 2.07228 16.4547 
2.52607 2.07432 16.4723 
2.53258 2.07637 16.4899 
2.54566 2.08047 16.5252 
2.55222 2.08252 16.5429 
2.46798 2.06293 16.3153 
2.47438 2.06495 16.3326 
2.4808 2.06697 16.3499 
2.48723 2.06899 16.3673 
2.49367 2.07102 16.3847 
2.50012 2.07305 16.4022 
2.50659 2.07508 16.4196 
2.51307 2.07712 16.4371 
2.51956 2.07917 16.4547 
2.52607 2.08121 16.4723 
2.53258 2.08326 16.4899 
2.53912 2.08532 16.5075 
2.54566 2.08738 16.5252 
2.55222 2.08944 16.5429 
2.46798 2.06977 16.3153 
2.47438 2.07179 16.3326 
2.4808 2.07381 16.3499 
2.48723 2.07584 16.3673 
2.49367 2.07788 16.3847 
2.50012 2.07991 16.4022 
2.50659 2.08196 16.4196 
2.51307 2.084 16.4371 
2.51956 2.08605 16.4547 
2.52607 2.0881 16.4723 
2.53258 2.09016 16.4899 
2.53912 2.09222 16.5075 
2.54566 2.09429 16.5252 
2.55222 2.09636 16.5429 
2.48723 2.08269 16.3673 
2.49367 2.08473 16.3847 
2.50012 2.08678 16.4022 
2.50659 2.08883 16.4196 
2.51307 2.09088 16.4371 
2.51956 2.09294 16.4547 
2.52607 2.095 16.4723 
2.53258 2.09706 16.4899 
2.53912 2.09913 16.5075 
2.54566 2.1012 16.5252 
2.55222 2.10328 16.5429 
2.50659 2.0957 16.4196 
2.51307 2.09776 16.4371 
2.51956 2.09982 16.4547 
2.52607 2.10189 16.4723 
2.29802 1.2803 15.9034 
2.30452 1.2882 15.9197 
2.31103 1.28942 15.9361 
2.31103 1.29611 15.9361 
2.31755 1.29734 15.9525 
2.32409 1.29858 15.969 
2.34377 1.31575 16.0184 
2.35036 1.31701 16.035 
2.35696 1.325 16.0516 
2.36357 1.32628 16.0682 
2.3702 1.33429 16.0849 
2.37683 1.33558 16.1015 
2.38348 1.34362 16.1183 
2.38348 1.35037 16.1183 
2.39015 1.35167 16.135 
2.39682 1.35298 16.1518 
2.39015 1.35843 16.135 
2.39682 1.35974 16.1518 
2.39015 1.36519 16.135 
2.39682 1.36651 16.1518 
2.40351 1.36783 16.1686 
2.41021 1.36915 16.1855 
2.39682 1.37327 16.1518 
2.40351 1.3746 16.1686 
2.41021 1.37593 16.1855 
2.40351 1.38137 16.1686 
2.41021 1.38271 16.1855 
2.41693 1.38405 16.2023 
2.40351 1.38814 16.1686 
2.41021 1.38949 16.1855 
2.41693 1.39084 16.2023 
2.42366 1.39218 16.2193 
2.41021 1.39627 16.1855 
2.41693 1.39762 16.2023 
2.42366 1.39898 16.2193 
2.4304 1.40033 16.2362 
2.41021 1.40304 16.1855 
2.41693 1.4044 16.2023 
2.42366 1.40577 16.2193 
2.4304 1.40713 16.2362 
2.42366 1.41256 16.2193 
2.4304 1.41393 16.2362 
2.43715 1.4153 16.2532 
2.4304 1.42073 16.2362 
2.43715 1.42211 16.2532 
2.44392 1.42349 16.2702 
2.4304 1.42753 16.2362 
2.43715 1.42891 16.2532 
2.44392 1.4303 16.2702 
2.43715 1.43572 16.2532 
2.44392 1.43711 16.2702 
2.43715 1.44252 16.2532 
2.44392 1.44393 16.2702 
2.43715 1.44933 16.2532 
2.44392 1.45074 16.2702 
2.44392 1.45755 16.2702 
2.44392 1.46436 16.2702 
2.44392 1.47117 16.2702 
2.44392 1.47798 16.2702 
2.4507 1.49987 16.2872 
2.45749 1.50816 16.3043 
2.45749 1.51498 16.3043 
2.45749 1.52181 16.3043 
2.45749 1.52863 16.3043 
2.47112 1.57264 16.3386 
2.47112 1.57948 16.3386 
2.47112 1.58632 16.3386 
2.47112 1.59316 16.3386 
2.47796 1.59471 16.3558 
2.47112 1.59999 16.3386 
2.47796 1.60156 16.3558 
2.47112 1.60683 16.3386 
2.47796 1.6084 16.3558 
2.47112 1.61367 16.3386 
2.47796 1.61525 16.3558 
2.47112 1.62051 16.3386 
2.47796 1.62209 16.3558 
2.47796 1.62894 16.3558 
2.47796 1.63578 16.3558 
2.4848 1.63738 16.373 
2.47796 1.64262 16.3558 
2.47796 1.64947 16.3558 
2.47796 1.65631 16.3558 
2.4848 1.65793 16.373 
2.4848 1.66478 16.373 
2.4848 1.67164 16.373 
2.4848 1.67849 16.373 
2.4848 1.68534 16.373 
2.4848 1.69219 16.373 
2.49166 1.71442 16.3902 
2.49166 1.72128 16.3902 
2.49166 1.72813 16.3902 
2.49166 1.73499 16.3902 
2.49166 1.74185 16.3902 
2.49166 1.74871 16.3902 
2.49166 1.75557 16.3902 
2.49854 1.75729 16.4075 
2.49166 1.76242 16.3902 
2.49854 1.76415 16.4075 
2.49166 1.76928 16.3902 
2.49854 1.77102 16.4075 
2.49166 1.77614 16.3902 
2.49854 1.77788 16.4075 
2.49166 1.783 16.3902 
2.49854 1.78474 16.4075 
2.49166 1.78985 16.3902 
2.49854 1.79161 16.4075 
2.49166 1.79671 16.3902 
2.49854 1.79847 16.4075 
2.49166 1.80357 16.3902 
2.49854 1.80534 16.4075 
2.49854 1.8122 16.4075 
2.49854 1.81907 16.4075 
2.49854 1.82593 16.4075 
2.49854 1.8328 16.4075 
2.49854 1.83966 16.4075 
2.49854 1.84652 16.4075 
2.49854 1.85339 16.4075 
2.49854 1.86025 16.4075 
2.49854 1.90144 16.4075 
2.49854 1.9083 16.4075 
2.49166 1.91329 16.3902 
2.49854 1.91517 16.4075 
2.49166 1.92015 16.3902 
2.49854 1.92203 16.4075 
2.49166 1.92701 16.3902 
2.49854 1.9289 16.4075 
2.49166 1.93386 16.3902 
2.49854 1.93576 16.4075 
2.49166 1.94072 16.3902 
