VERSION .7
FIELDS x y z
SIZE 4 4 4
TYPE F F F
COUNT 1 1 1
WIDTH 1941
HEIGHT 1
VIEWPOINT 0 0 0 1 0 0 0
POINTS 1941
DATA ascii
5.00466 2.96511 17.3998 
5.03386 2.96917 17.392 
5.06314 2.97323 17.3842 
4.80249 2.94649 17.454 
4.83114 2.95048 17.4463 
4.85986 2.95449 17.4386 
4.88867 2.9585 17.4309 
4.91755 2.96253 17.4232 
4.94651 2.96657 17.4154 
4.97555 2.97061 17.4076 
5.00466 2.97467 17.3998 
5.03386 2.97874 17.392 
5.06314 2.98283 17.3842 
5.0925 2.98692 17.3763 
4.80249 2.95597 17.454 
4.83114 2.95997 17.4463 
4.85986 2.96399 17.4386 
4.88867 2.96802 17.4309 
4.91755 2.97206 17.4232 
4.94651 2.97611 17.4154 
4.97555 2.98017 17.4076 
5.00466 2.98424 17.3998 
5.03386 2.98832 17.392 
5.06314 2.99242 17.3842 
5.0925 2.99652 17.3763 
5.12194 3.00064 17.3684 
5.15146 3.00477 17.3605 
4.80249 2.96544 17.454 
4.83114 2.96946 17.4463 
4.85986 2.97349 17.4386 
4.88867 2.97753 17.4309 
4.91755 2.98158 17.4232 
4.94651 2.98564 17.4154 
4.97555 2.98972 17.4076 
5.00466 2.9938 17.3998 
5.03386 2.9979 17.392 
5.06314 3.00201 17.3842 
5.0925 3.00613 17.3763 
5.12194 3.01026 17.3684 
5.15146 3.0144 17.3605 
5.18106 3.01855 17.3526 
4.91755 2.99111 17.4232 
4.94651 2.99518 17.4154 
4.97555 2.99927 17.4076 
5.00466 3.00337 17.3998 
5.03386 3.00748 17.392 
5.06314 3.0116 17.3842 
5.0925 3.01573 17.3763 
5.12194 3.01987 17.3684 
5.15146 3.02403 17.3605 
5.18106 3.0282 17.3526 
5.21074 3.03237 17.3446 
5.24051 3.03656 17.3366 
4.91755 3.00063 17.4232 
4.94651 3.00472 17.4154 
4.97555 3.00882 17.4076 
5.00466 3.01293 17.3998 
5.03386 3.01706 17.392 
5.06314 3.02119 17.3842 
5.0925 3.02534 17.3763 
5.12194 3.02949 17.3684 
5.15146 3.03366 17.3605 
5.18106 3.03784 17.3526 
5.21074 3.04203 17.3446 
5.24051 3.04623 17.3366 
5.27035 3.05045 17.3286 
4.97555 3.01837 17.4076 
5.00466 3.0225 17.3998 
5.03386 3.02663 17.392 
5.06314 3.03078 17.3842 
5.0925 3.03494 17.3763 
5.12194 3.03911 17.3684 
5.15146 3.04329 17.3605 
5.18106 3.04748 17.3526 
5.21074 3.05169 17.3446 
5.24051 3.0559 17.3366 
5.27035 3.06013 17.3286 
5.30028 3.06437 17.3206 
4.97555 3.02793 17.4076 
5.00466 3.03206 17.3998 
5.03386 3.03621 17.392 
5.06314 3.04037 17.3842 
5.0925 3.04454 17.3763 
5.12194 3.04873 17.3684 
5.15146 3.05292 17.3605 
5.18106 3.05713 17.3526 
5.21074 3.06134 17.3446 
5.24051 3.06557 17.3366 
5.27035 3.06981 17.3286 
5.30028 3.07407 17.3206 
5.3303 3.07833 17.3126 
4.97555 3.03748 17.4076 
5.00466 3.04163 17.3998 
5.03386 3.04579 17.392 
5.06314 3.04996 17.3842 
5.0925 3.05415 17.3763 
5.12194 3.05834 17.3684 
5.15146 3.06255 17.3605 
5.18106 3.06677 17.3526 
5.21074 3.071 17.3446 
5.24051 3.07524 17.3366 
5.27035 3.0795 17.3286 
5.30028 3.08377 17.3206 
5.3303 3.08804 17.3126 
5.36039 3.09233 17.3045 
4.97555 3.04703 17.4076 
5.00466 3.05119 17.3998 
5.03386 3.05537 17.392 
5.06314 3.05955 17.3842 
5.0925 3.06375 17.3763 
5.12194 3.06796 17.3684 
5.15146 3.07218 17.3605 
5.18106 3.07641 17.3526 
5.21074 3.08066 17.3446 
5.24051 3.08492 17.3366 
5.27035 3.08918 17.3286 
5.30028 3.09346 17.3206 
5.3303 3.09775 17.3126 
5.36039 3.10206 17.3045 
5.75939 3.15911 17.1976 
5.0925 3.07336 17.3763 
5.12194 3.07758 17.3684 
5.15146 3.08181 17.3605 
5.18106 3.08606 17.3526 
5.21074 3.09032 17.3446 
5.24051 3.09459 17.3366 
5.27035 3.09887 17.3286 
5.30028 3.10316 17.3206 
5.3303 3.10746 17.3126 
5.0925 3.08296 17.3763 
5.12194 3.0872 17.3684 
5.15146 3.09144 17.3605 
5.18106 3.0957 17.3526 
5.21074 3.09997 17.3446 
5.24051 3.10426 17.3366 
5.27035 3.10855 17.3286 
5.30028 3.11286 17.3206 
5.3303 3.11718 17.3126 
5.0925 3.09256 17.3763 
5.12194 3.09681 17.3684 
5.15146 3.10107 17.3605 
5.18106 3.10535 17.3526 
5.21074 3.10963 17.3446 
5.24051 3.11393 17.3366 
5.27035 3.11823 17.3286 
5.30028 3.12255 17.3206 
5.3303 3.12689 17.3126 
5.0925 3.10217 17.3763 
5.12194 3.10643 17.3684 
5.15146 3.1107 17.3605 
5.18106 3.11499 17.3526 
5.21074 3.11929 17.3446 
5.24051 3.1236 17.3366 
5.27035 3.12792 17.3286 
5.30028 3.13225 17.3206 
5.3303 3.1366 17.3126 
5.15146 3.12034 17.3605 
5.18106 3.12463 17.3526 
5.21074 3.12895 17.3446 
5.24051 3.13327 17.3366 
5.27035 3.1376 17.3286 
5.30028 3.14195 17.3206 
5.3303 3.14631 17.3126 
5.15146 3.12997 17.3605 
5.18106 3.13428 17.3526 
5.21074 3.1386 17.3446 
5.24051 3.14294 17.3366 
5.27035 3.14729 17.3286 
5.30028 3.15165 17.3206 
5.3303 3.15602 17.3126 
5.15146 3.1396 17.3605 
5.18106 3.14392 17.3526 
5.21074 3.14826 17.3446 
5.24051 3.15261 17.3366 
5.27035 3.15697 17.3286 
5.30028 3.16134 17.3206 
5.3303 3.16573 17.3126 
5.15146 3.14923 17.3605 
5.18106 3.15357 17.3526 
5.21074 3.15792 17.3446 
5.24051 3.16228 17.3366 
5.27035 3.16665 17.3286 
5.30028 3.17104 17.3206 
5.3303 3.17544 17.3126 
5.15146 3.15886 17.3605 
5.18106 3.16321 17.3526 
5.21074 3.16757 17.3446 
5.24051 3.17195 17.3366 
5.27035 3.17634 17.3286 
5.30028 3.18074 17.3206 
5.3303 3.18515 17.3126 
5.15146 3.16849 17.3605 
5.18106 3.17285 17.3526 
5.21074 3.17723 17.3446 
5.24051 3.18162 17.3366 
5.27035 3.18602 17.3286 
5.30028 3.19044 17.3206 
5.3303 3.19486 17.3126 
5.15146 3.17812 17.3605 
5.18106 3.1825 17.3526 
5.21074 3.18689 17.3446 
5.24051 3.19129 17.3366 
5.27035 3.19571 17.3286 
5.30028 3.20013 17.3206 
5.3303 3.20457 17.3126 
5.36039 3.20902 17.3045 
5.12194 3.18337 17.3684 
5.15146 3.18775 17.3605 
5.18106 3.19214 17.3526 
5.21074 3.19655 17.3446 
5.24051 3.20096 17.3366 
5.27035 3.20539 17.3286 
5.30028 3.20983 17.3206 
5.3303 3.21428 17.3126 
5.36039 3.21875 17.3045 
5.0925 3.18861 17.3763 
5.12194 3.19299 17.3684 
5.15146 3.19738 17.3605 
5.18106 3.20179 17.3526 
5.21074 3.2062 17.3446 
5.24051 3.21063 17.3366 
5.27035 3.21507 17.3286 
5.30028 3.21953 17.3206 
5.3303 3.22399 17.3126 
5.36039 3.22847 17.3045 
5.0925 3.19821 17.3763 
5.12194 3.20261 17.3684 
5.15146 3.20701 17.3605 
5.18106 3.21143 17.3526 
5.21074 3.21586 17.3446 
5.24051 3.2203 17.3366 
5.27035 3.22476 17.3286 
5.30028 3.22923 17.3206 
5.3303 3.23371 17.3126 
5.36039 3.2382 17.3045 
5.0925 3.20782 17.3763 
5.12194 3.21222 17.3684 
5.15146 3.21664 17.3605 
5.18106 3.22107 17.3526 
5.21074 3.22552 17.3446 
5.24051 3.22997 17.3366 
5.27035 3.23444 17.3286 
5.30028 3.23892 17.3206 
5.3303 3.24342 17.3126 
5.36039 3.24792 17.3045 
5.0925 3.21742 17.3763 
5.12194 3.22184 17.3684 
5.15146 3.22627 17.3605 
5.18106 3.23072 17.3526 
5.21074 3.23517 17.3446 
5.24051 3.23964 17.3366 
5.27035 3.24413 17.3286 
5.30028 3.24862 17.3206 
5.3303 3.25313 17.3126 
5.36039 3.25765 17.3045 
5.03386 3.21819 17.392 
5.06314 3.2226 17.3842 
5.0925 3.22702 17.3763 
5.12194 3.23146 17.3684 
5.15146 3.2359 17.3605 
5.18106 3.24036 17.3526 
5.21074 3.24483 17.3446 
5.24051 3.24932 17.3366 
5.27035 3.25381 17.3286 
5.30028 3.25832 17.3206 
5.3303 3.26284 17.3126 
5.36039 3.26737 17.3045 
5.03386 3.22777 17.392 
5.06314 3.23219 17.3842 
5.0925 3.23663 17.3763 
5.12194 3.24108 17.3684 
5.15146 3.24553 17.3605 
5.18106 3.25001 17.3526 
5.21074 3.25449 17.3446 
5.24051 3.25899 17.3366 
5.27035 3.26349 17.3286 
5.30028 3.26802 17.3206 
5.3303 3.27255 17.3126 
5.06314 3.24178 17.3842 
5.0925 3.24623 17.3763 
5.12194 3.25069 17.3684 
5.15146 3.25517 17.3605 
5.18106 3.25965 17.3526 
5.21074 3.26415 17.3446 
5.24051 3.26866 17.3366 
5.27035 3.27318 17.3286 
5.06314 3.25138 17.3842 
5.0925 3.25584 17.3763 
5.12194 3.26031 17.3684 
5.15146 3.2648 17.3605 
5.18106 3.26929 17.3526 
5.21074 3.2738 17.3446 
5.24051 3.27833 17.3366 
5.27035 3.28286 17.3286 
5.0925 3.26544 17.3763 
5.12194 3.26993 17.3684 
5.15146 3.27443 17.3605 
5.18106 3.27894 17.3526 
5.21074 3.28346 17.3446 
5.24051 3.288 17.3366 
5.0925 3.27505 17.3763 
5.12194 3.27955 17.3684 
5.15146 3.28406 17.3605 
5.18106 3.28858 17.3526 
5.21074 3.29312 17.3446 
5.24051 3.29767 17.3366 
5.0925 3.28465 17.3763 
5.12194 3.28916 17.3684 
5.15146 3.29369 17.3605 
5.18106 3.29823 17.3526 
5.21074 3.30278 17.3446 
5.24051 3.30734 17.3366 
5.0925 3.29425 17.3763 
5.12194 3.29878 17.3684 
5.15146 3.30332 17.3605 
5.18106 3.30787 17.3526 
5.21074 3.31243 17.3446 
5.24051 3.31701 17.3366 
5.15146 3.31295 17.3605 
5.18106 3.31751 17.3526 
5.21074 3.32209 17.3446 
5.24051 3.32668 17.3366 
5.18106 3.32716 17.3526 
5.21074 3.33175 17.3446 
4.3242 1.96337 17.5466 
4.35128 1.96597 17.5383 
4.2972 1.97002 17.555 
4.3242 1.97263 17.5466 
4.35128 1.97524 17.5383 
4.27026 1.97666 17.5633 
4.2972 1.97927 17.555 
4.3242 1.98189 17.5466 
4.35128 1.98451 17.5383 
4.24339 1.98328 17.5716 
4.27026 1.98589 17.5633 
4.2972 1.98852 17.555 
4.35128 1.99379 17.5383 
4.37843 1.99643 17.5299 
4.2166 1.98988 17.5798 
4.24339 1.9925 17.5716 
4.2972 1.99777 17.555 
4.3242 2.00041 17.5466 
4.35128 2.00306 17.5383 
4.37843 2.00572 17.5299 
4.2166 1.99909 17.5798 
4.24339 2.00173 17.5716 
4.27026 2.00437 17.5633 
4.2972 2.00702 17.555 
4.3242 2.00967 17.5466 
4.35128 2.01233 17.5383 
4.37843 2.015 17.5299 
4.40565 2.01768 17.5215 
4.2166 2.0083 17.5798 
4.24339 2.01095 17.5716 
4.27026 2.0136 17.5633 
4.2972 2.01627 17.555 
4.3242 2.01893 17.5466 
4.35128 2.02161 17.5383 
4.37843 2.02429 17.5299 
4.40565 2.02698 17.5215 
4.46032 2.03238 17.5046 
4.2166 2.01752 17.5798 
4.24339 2.02018 17.5716 
4.27026 2.02284 17.5633 
4.2972 2.02551 17.555 
4.3242 2.02819 17.5466 
4.35128 2.03088 17.5383 
4.37843 2.03357 17.5299 
4.40565 2.03628 17.5215 
4.46032 2.0417 17.5046 
4.24339 2.0294 17.5716 
4.27026 2.03208 17.5633 
4.2972 2.03476 17.555 
4.3242 2.03746 17.5466 
4.35128 2.04015 17.5383 
4.37843 2.04286 17.5299 
4.40565 2.04557 17.5215 
4.43295 2.04829 17.5131 
4.46032 2.05102 17.5046 
4.48776 2.05376 17.4962 
3.97859 2.01211 17.6532 
4.2972 2.04401 17.555 
4.3242 2.04672 17.5466 
4.35128 2.04943 17.5383 
4.37843 2.05215 17.5299 
4.40565 2.05487 17.5215 
4.43295 2.05761 17.5131 
4.46032 2.06035 17.5046 
4.48776 2.06309 17.4962 
2.56904 1.87943 18.088 
4.2972 2.05326 17.555 
4.3242 2.05598 17.5466 
4.35128 2.0587 17.5383 
4.37843 2.06143 17.5299 
4.40565 2.06417 17.5215 
4.43295 2.06692 17.5131 
4.46032 2.06967 17.5046 
4.48776 2.07243 17.4962 
4.51527 2.0752 17.4877 
4.54286 2.07797 17.4792 
4.2972 2.06251 17.555 
4.3242 2.06524 17.5466 
4.35128 2.06797 17.5383 
4.37843 2.07072 17.5299 
4.40565 2.07347 17.5215 
4.43295 2.07623 17.5131 
4.46032 2.07899 17.5046 
4.48776 2.08176 17.4962 
4.51527 2.08454 17.4877 
4.54286 2.08733 17.4792 
2.65987 1.90558 18.06 
4.40565 2.08277 17.5215 
4.43295 2.08554 17.5131 
4.46032 2.08831 17.5046 
4.48776 2.0911 17.4962 
4.51527 2.09389 17.4877 
4.54286 2.09669 17.4792 
4.57052 2.0995 17.4706 
6.77758 2.3235 16.7899 
6.81155 2.32695 16.7794 
4.40565 2.09206 17.5215 
4.43295 2.09485 17.5131 
4.46032 2.09764 17.5046 
4.48776 2.10043 17.4962 
4.51527 2.10324 17.4877 
4.54286 2.10605 17.4792 
4.57052 2.10887 17.4706 
6.77758 2.33387 16.7899 
4.40565 2.10136 17.5215 
4.43295 2.10416 17.5131 
4.46032 2.10696 17.5046 
4.48776 2.10977 17.4962 
4.51527 2.11259 17.4877 
4.54286 2.11541 17.4792 
4.57052 2.11824 17.4706 
4.59825 2.12108 17.4621 
2.75159 1.94054 18.0317 
4.40565 2.11066 17.5215 
4.43295 2.11347 17.5131 
4.46032 2.11628 17.5046 
4.48776 2.1191 17.4962 
4.51527 2.12193 17.4877 
4.54286 2.12477 17.4792 
4.57052 2.12762 17.4706 
4.59825 2.13047 17.4621 
2.75159 1.94909 18.0317 
4.40565 2.11996 17.5215 
4.43295 2.12278 17.5131 
4.46032 2.12561 17.5046 
4.48776 2.12844 17.4962 
4.51527 2.13128 17.4877 
4.54286 2.13413 17.4792 
4.57052 2.13699 17.4706 
4.59825 2.13986 17.4621 
3.61923 2.04766 17.7641 
4.40565 2.12926 17.5215 
4.43295 2.13209 17.5131 
4.46032 2.13493 17.5046 
4.48776 2.13778 17.4962 
4.51527 2.14063 17.4877 
4.54286 2.14349 17.4792 
4.57052 2.14636 17.4706 
4.59825 2.14924 17.4621 
4.46032 2.14425 17.5046 
4.48776 2.14711 17.4962 
4.51527 2.14998 17.4877 
4.54286 2.15285 17.4792 
4.57052 2.15574 17.4706 
4.59825 2.15863 17.4621 
4.46032 2.15357 17.5046 
4.48776 2.15645 17.4962 
4.51527 2.15933 17.4877 
4.54286 2.16221 17.4792 
4.57052 2.16511 17.4706 
4.59825 2.16801 17.4621 
4.46032 2.1629 17.5046 
4.48776 2.16578 17.4962 
4.51527 2.16867 17.4877 
4.54286 2.17157 17.4792 
4.57052 2.17448 17.4706 
4.59825 2.1774 17.4621 
4.62607 2.18032 17.4535 
4.46032 2.17222 17.5046 
4.48776 2.17512 17.4962 
4.51527 2.17802 17.4877 
4.54286 2.18093 17.4792 
4.57052 2.18385 17.4706 
4.59825 2.18678 17.4621 
4.62607 2.18972 17.4535 
4.46032 2.18154 17.5046 
4.48776 2.18445 17.4962 
4.51527 2.18737 17.4877 
4.54286 2.19029 17.4792 
4.57052 2.19323 17.4706 
4.59825 2.19617 17.4621 
4.62607 2.19912 17.4535 
4.46032 2.19087 17.5046 
4.48776 2.19379 17.4962 
4.51527 2.19672 17.4877 
4.54286 2.19965 17.4792 
4.57052 2.2026 17.4706 
4.59825 2.20555 17.4621 
4.46032 2.20019 17.5046 
4.48776 2.20312 17.4962 
4.51527 2.20606 17.4877 
4.54286 2.20901 17.4792 
4.57052 2.21197 17.4706 
4.59825 2.21494 17.4621 
4.46032 2.20951 17.5046 
4.48776 2.21246 17.4962 
4.51527 2.21541 17.4877 
4.54286 2.21837 17.4792 
4.57052 2.22134 17.4706 
4.59825 2.22432 17.4621 
4.46032 2.21883 17.5046 
4.48776 2.22179 17.4962 
4.51527 2.22476 17.4877 
4.54286 2.22773 17.4792 
4.57052 2.23072 17.4706 
4.59825 2.23371 17.4621 
4.46032 2.22816 17.5046 
4.48776 2.23113 17.4962 
4.51527 2.23411 17.4877 
4.54286 2.23709 17.4792 
4.57052 2.24009 17.4706 
4.59825 2.24309 17.4621 
4.46032 2.23748 17.5046 
4.48776 2.24046 17.4962 
4.51527 2.24346 17.4877 
4.54286 2.24646 17.4792 
4.59825 2.25248 17.4621 
4.46032 2.2468 17.5046 
4.48776 2.2498 17.4962 
4.51527 2.2528 17.4877 
4.54286 2.25582 17.4792 
4.59825 2.26186 17.4621 
4.46032 2.25613 17.5046 
4.48776 2.25913 17.4962 
4.51527 2.26215 17.4877 
4.54286 2.26518 17.4792 
4.59825 2.27125 17.4621 
4.46032 2.26545 17.5046 
4.48776 2.26847 17.4962 
4.51527 2.2715 17.4877 
4.54286 2.27454 17.4792 
4.57052 2.27758 17.4706 
4.59825 2.28064 17.4621 
4.46032 2.27477 17.5046 
4.48776 2.2778 17.4962 
4.51527 2.28085 17.4877 
4.54286 2.2839 17.4792 
4.57052 2.28695 17.4706 
4.59825 2.29002 17.4621 
4.46032 2.28409 17.5046 
4.48776 2.28714 17.4962 
4.51527 2.29019 17.4877 
4.54286 2.29326 17.4792 
4.57052 2.29633 17.4706 
4.59825 2.29941 17.4621 
4.46032 2.29342 17.5046 
4.48776 2.29647 17.4962 
4.51527 2.29954 17.4877 
4.54286 2.30262 17.4792 
4.57052 2.3057 17.4706 
4.46032 2.30274 17.5046 
4.48776 2.30581 17.4962 
4.51527 2.30889 17.4877 
4.54286 2.31198 17.4792 
4.57052 2.31507 17.4706 
4.46032 2.31206 17.5046 
4.48776 2.31515 17.4962 
4.51527 2.31824 17.4877 
4.54286 2.32134 17.4792 
4.57052 2.32445 17.4706 
4.46032 2.32138 17.5046 
4.48776 2.32448 17.4962 
4.51527 2.32758 17.4877 
4.54286 2.3307 17.4792 
4.57052 2.33382 17.4706 
4.46032 2.33071 17.5046 
4.48776 2.33382 17.4962 
4.51527 2.33693 17.4877 
4.54286 2.34006 17.4792 
4.57052 2.34319 17.4706 
4.46032 2.34003 17.5046 
4.48776 2.34315 17.4962 
4.51527 2.34628 17.4877 
4.54286 2.34942 17.4792 
4.57052 2.35256 17.4706 
4.46032 2.34935 17.5046 
4.48776 2.35249 17.4962 
4.51527 2.35563 17.4877 
4.54286 2.35878 17.4792 
4.46032 2.35868 17.5046 
4.48776 2.36182 17.4962 
4.51527 2.36498 17.4877 
4.54286 2.36814 17.4792 
4.46032 2.368 17.5046 
4.48776 2.37116 17.4962 
4.51527 2.37432 17.4877 
4.54286 2.3775 17.4792 
4.46032 2.37732 17.5046 
4.48776 2.38049 17.4962 
4.51527 2.38367 17.4877 
4.54286 2.38686 17.4792 
4.48776 2.38983 17.4962 
4.51527 2.39302 17.4877 
4.54286 2.39622 17.4792 
4.51527 2.40237 17.4877 
4.54286 2.40558 17.4792 
4.51527 2.41171 17.4877 
4.54286 2.41494 17.4792 
4.51527 2.42106 17.4877 
4.54286 2.4243 17.4792 
4.51527 2.43041 17.4877 
4.54286 2.43366 17.4792 
4.54286 2.44302 17.4792 
4.54286 2.45238 17.4792 
4.54286 2.46174 17.4792 
4.54286 2.4711 17.4792 
4.54286 2.48046 17.4792 
4.54286 2.48982 17.4792 
4.54286 2.49918 17.4792 
4.57052 2.69936 17.4706 
4.57052 2.70873 17.4706 
4.54286 2.73319 17.4792 
4.54286 2.74255 17.4792 
4.54286 2.75191 17.4792 
4.54286 2.76127 17.4792 
4.54286 2.77063 17.4792 
4.57052 2.77434 17.4706 
4.54286 2.77999 17.4792 
4.57052 2.80246 17.4706 
4.57052 2.81183 17.4706 
4.59825 2.8156 17.4621 
4.65395 2.8514 17.4449 
4.68191 2.86466 17.4363 
4.70995 2.86852 17.4276 
4.70995 2.87796 17.4276 
4.73806 2.89129 17.419 
4.76624 2.8952 17.4103 
4.76624 2.90466 17.4103 
4.79451 2.91807 17.4016 
4.82285 2.92202 17.3928 
4.87976 2.93948 17.3753 
4.90833 2.953 17.3664 
4.93698 2.95703 17.3576 
4.96571 2.96106 17.3487 
4.99451 2.96511 17.3399 
4.96571 2.97061 17.3487 
4.99451 2.97467 17.3399 
5.0234 2.97874 17.331 
5.05236 2.98283 17.322 
5.0814 2.98692 17.3131 
4.99451 2.98424 17.3399 
5.0234 2.98832 17.331 
5.05236 2.99242 17.322 
5.0814 2.99652 17.3131 
5.11053 3.00064 17.3041 
5.13973 3.00477 17.2951 
5.16901 3.00891 17.286 
5.19838 3.01306 17.277 
5.05236 3.00201 17.322 
5.0814 3.00613 17.3131 
5.11053 3.01026 17.3041 
5.13973 3.0144 17.2951 
5.16901 3.01855 17.286 
5.19838 3.02272 17.277 
5.22783 3.02689 17.2679 
5.0814 3.01573 17.3131 
5.11053 3.01987 17.3041 
5.13973 3.02403 17.2951 
5.16901 3.0282 17.286 
5.19838 3.03237 17.277 
5.22783 3.03656 17.2679 
5.25735 3.04076 17.2588 
5.28696 3.04498 17.2497 
5.31665 3.0492 17.2405 
5.0814 3.02534 17.3131 
5.11053 3.02949 17.3041 
5.13973 3.03366 17.2951 
5.16901 3.03784 17.286 
5.19838 3.04203 17.277 
5.22783 3.04623 17.2679 
5.25735 3.05045 17.2588 
5.28696 3.05467 17.2497 
5.31665 3.05891 17.2405 
5.34643 3.06316 17.2313 
5.0814 3.03494 17.3131 
5.11053 3.03911 17.3041 
5.13973 3.04329 17.2951 
5.16901 3.04748 17.286 
5.19838 3.05169 17.277 
5.22783 3.0559 17.2679 
5.25735 3.06013 17.2588 
5.28696 3.06437 17.2497 
5.31665 3.06862 17.2405 
5.34643 3.07288 17.2313 
5.37628 3.07716 17.2221 
5.0814 3.04454 17.3131 
5.11053 3.04873 17.3041 
5.13973 3.05292 17.2951 
5.16901 3.05713 17.286 
5.19838 3.06134 17.277 
5.22783 3.06557 17.2679 
5.25735 3.06981 17.2588 
5.28696 3.07407 17.2497 
5.31665 3.07833 17.2405 
5.34643 3.08261 17.2313 
5.37628 3.0869 17.2221 
5.40622 3.0912 17.2129 
5.0814 3.05415 17.3131 
5.11053 3.05834 17.3041 
5.13973 3.06255 17.2951 
5.16901 3.06677 17.286 
5.19838 3.071 17.277 
5.22783 3.07524 17.2679 
5.28696 3.08377 17.2497 
5.31665 3.08804 17.2405 
5.34643 3.09233 17.2313 
5.37628 3.09663 17.2221 
5.40622 3.10095 17.2129 
5.43625 3.10527 17.2036 
5.46635 3.10961 17.1943 
5.0814 3.06375 17.3131 
5.11053 3.06796 17.3041 
5.13973 3.07218 17.2951 
5.16901 3.07641 17.286 
5.19838 3.08066 17.277 
5.22783 3.08492 17.2679 
5.25735 3.08918 17.2588 
5.28696 3.09346 17.2497 
5.31665 3.09775 17.2405 
5.34643 3.10206 17.2313 
5.37628 3.10637 17.2221 
5.40622 3.1107 17.2129 
5.43625 3.11504 17.2036 
5.46635 3.11939 17.1943 
5.13973 3.08181 17.2951 
5.16901 3.08606 17.286 
5.19838 3.09032 17.277 
5.22783 3.09459 17.2679 
5.25735 3.09887 17.2588 
5.28696 3.10316 17.2497 
5.31665 3.10746 17.2405 
5.34643 3.11178 17.2313 
5.37628 3.11611 17.2221 
5.40622 3.12045 17.2129 
5.43625 3.1248 17.2036 
5.46635 3.12917 17.1943 
5.49654 3.13355 17.185 
5.52682 3.13794 17.1757 
5.13973 3.09144 17.2951 
5.16901 3.0957 17.286 
5.19838 3.09997 17.277 
5.22783 3.10426 17.2679 
5.25735 3.10855 17.2588 
5.28696 3.11286 17.2497 
5.31665 3.11718 17.2405 
5.34643 3.12151 17.2313 
5.37628 3.12585 17.2221 
5.40622 3.1302 17.2129 
5.43625 3.13457 17.2036 
5.46635 3.13895 17.1943 
5.49654 3.14334 17.185 
5.52682 3.14774 17.1757 
5.19838 3.10963 17.277 
5.22783 3.11393 17.2679 
5.25735 3.11823 17.2588 
5.28696 3.12255 17.2497 
5.31665 3.12689 17.2405 
5.34643 3.13123 17.2313 
5.37628 3.13559 17.2221 
5.40622 3.13995 17.2129 
5.43625 3.14433 17.2036 
5.46635 3.14873 17.1943 
5.49654 3.15313 17.185 
5.52682 3.15755 17.1757 
5.19838 3.11929 17.277 
5.22783 3.1236 17.2679 
5.25735 3.12792 17.2588 
5.28696 3.13225 17.2497 
5.31665 3.1366 17.2405 
5.34643 3.14095 17.2313 
5.37628 3.14532 17.2221 
5.40622 3.14971 17.2129 
5.43625 3.1541 17.2036 
5.46635 3.15851 17.1943 
5.49654 3.16292 17.185 
5.52682 3.16735 17.1757 
5.25735 3.1376 17.2588 
5.28696 3.14195 17.2497 
5.31665 3.14631 17.2405 
5.34643 3.15068 17.2313 
5.37628 3.15506 17.2221 
5.40622 3.15946 17.2129 
5.43625 3.16386 17.2036 
5.46635 3.16828 17.1943 
5.49654 3.17272 17.185 
5.52682 3.17716 17.1757 
5.25735 3.14729 17.2588 
5.28696 3.15165 17.2497 
5.31665 3.15602 17.2405 
5.34643 3.1604 17.2313 
5.37628 3.1648 17.2221 
5.40622 3.16921 17.2129 
5.43625 3.17363 17.2036 
5.46635 3.17806 17.1943 
5.49654 3.18251 17.185 
5.52682 3.18697 17.1757 
5.25735 3.15697 17.2588 
5.28696 3.16134 17.2497 
5.31665 3.16573 17.2405 
5.34643 3.17013 17.2313 
5.37628 3.17454 17.2221 
5.40622 3.17896 17.2129 
5.43625 3.18339 17.2036 
5.46635 3.18784 17.1943 
5.49654 3.1923 17.185 
5.52682 3.19677 17.1757 
5.25735 3.16665 17.2588 
5.28696 3.17104 17.2497 
5.31665 3.17544 17.2405 
5.34643 3.17985 17.2313 
5.37628 3.18428 17.2221 
5.40622 3.18871 17.2129 
5.43625 3.19316 17.2036 
5.46635 3.19762 17.1943 
5.49654 3.20209 17.185 
5.52682 3.20658 17.1757 
5.55718 3.21108 17.1663 
5.25735 3.17634 17.2588 
5.28696 3.18074 17.2497 
5.31665 3.18515 17.2405 
5.34643 3.18958 17.2313 
5.37628 3.19401 17.2221 
5.40622 3.19846 17.2129 
5.43625 3.20292 17.2036 
5.46635 3.2074 17.1943 
5.49654 3.21189 17.185 
5.52682 3.21639 17.1757 
5.55718 3.2209 17.1663 
5.25735 3.18602 17.2588 
5.28696 3.19044 17.2497 
5.31665 3.19486 17.2405 
5.34643 3.1993 17.2313 
5.37628 3.20375 17.2221 
5.40622 3.20821 17.2129 
5.43625 3.21269 17.2036 
5.46635 3.21718 17.1943 
5.49654 3.22168 17.185 
5.52682 3.22619 17.1757 
5.55718 3.23072 17.1663 
5.25735 3.19571 17.2588 
5.28696 3.20013 17.2497 
5.31665 3.20457 17.2405 
5.34643 3.20902 17.2313 
5.37628 3.21349 17.2221 
5.40622 3.21797 17.2129 
5.43625 3.22245 17.2036 
5.46635 3.22696 17.1943 
5.49654 3.23147 17.185 
5.52682 3.236 17.1757 
5.55718 3.24054 17.1663 
5.25735 3.20539 17.2588 
5.28696 3.20983 17.2497 
5.31665 3.21428 17.2405 
5.34643 3.21875 17.2313 
5.37628 3.22323 17.2221 
5.40622 3.22772 17.2129 
5.43625 3.23222 17.2036 
5.46635 3.23673 17.1943 
5.49654 3.24126 17.185 
5.52682 3.2458 17.1757 
5.55718 3.25036 17.1663 
5.25735 3.21507 17.2588 
5.28696 3.21953 17.2497 
5.31665 3.22399 17.2405 
5.34643 3.22847 17.2313 
5.37628 3.23296 17.2221 
5.40622 3.23747 17.2129 
5.43625 3.24198 17.2036 
5.46635 3.24651 17.1943 
5.49654 3.25106 17.185 
5.52682 3.25561 17.1757 
5.55718 3.26018 17.1663 
5.25735 3.22476 17.2588 
5.28696 3.22923 17.2497 
5.31665 3.23371 17.2405 
5.34643 3.2382 17.2313 
5.37628 3.2427 17.2221 
5.40622 3.24722 17.2129 
5.43625 3.25175 17.2036 
5.46635 3.25629 17.1943 
5.49654 3.26085 17.185 
5.52682 3.26542 17.1757 
5.55718 3.27 17.1663 
5.25735 3.23444 17.2588 
5.28696 3.23892 17.2497 
5.31665 3.24342 17.2405 
5.34643 3.24792 17.2313 
5.37628 3.25244 17.2221 
5.40622 3.25697 17.2129 
5.43625 3.26151 17.2036 
5.46635 3.26607 17.1943 
5.49654 3.27064 17.185 
5.52682 3.27522 17.1757 
5.55718 3.27982 17.1663 
5.25735 3.24413 17.2588 
5.28696 3.24862 17.2497 
5.31665 3.25313 17.2405 
5.34643 3.25765 17.2313 
5.37628 3.26218 17.2221 
5.40622 3.26672 17.2129 
5.43625 3.27128 17.2036 
5.46635 3.27585 17.1943 
5.49654 3.28043 17.185 
5.52682 3.28503 17.1757 
5.31665 3.26284 17.2405 
5.34643 3.26737 17.2313 
5.37628 3.27192 17.2221 
5.40622 3.27647 17.2129 
5.43625 3.28104 17.2036 
5.46635 3.28563 17.1943 
5.49654 3.29022 17.185 
5.52682 3.29483 17.1757 
5.31665 3.27255 17.2405 
5.34643 3.27709 17.2313 
5.37628 3.28165 17.2221 
5.40622 3.28623 17.2129 
5.43625 3.29081 17.2036 
5.46635 3.29541 17.1943 
5.49654 3.30002 17.185 
5.52682 3.30464 17.1757 
5.31665 3.28226 17.2405 
5.34643 3.28682 17.2313 
5.37628 3.29139 17.2221 
5.40622 3.29598 17.2129 
5.43625 3.30057 17.2036 
5.46635 3.30519 17.1943 
5.49654 3.30981 17.185 
5.52682 3.31445 17.1757 
5.31665 3.29197 17.2405 
5.34643 3.29654 17.2313 
5.37628 3.30113 17.2221 
5.40622 3.30573 17.2129 
5.43625 3.31034 17.2036 
5.46635 3.31496 17.1943 
5.49654 3.3196 17.185 
5.31665 3.30168 17.2405 
5.34643 3.30627 17.2313 
5.37628 3.31087 17.2221 
5.40622 3.31548 17.2129 
5.43625 3.3201 17.2036 
5.46635 3.32474 17.1943 
5.31665 3.31139 17.2405 
5.34643 3.31599 17.2313 
5.37628 3.32061 17.2221 
5.40622 3.32523 17.2129 
5.31665 3.3211 17.2405 
5.34643 3.32572 17.2313 
5.37628 3.33034 17.2221 
5.40622 3.33498 17.2129 
5.31665 3.33081 17.2405 
5.34643 3.33544 17.2313 
5.37628 3.34008 17.2221 
5.40622 3.34473 17.2129 
5.31665 3.34052 17.2405 
5.34643 3.34517 17.2313 
5.34643 3.35489 17.2313 
5.37628 3.35956 17.2221 
6.61013 1.9489 16.7107 
6.61013 1.95921 16.7107 
6.61013 1.96952 16.7107 
6.6433 1.97243 16.6991 
4.45446 1.91118 17.465 
4.48157 1.91373 17.4555 
4.45446 1.9205 17.465 
4.48157 1.92306 17.4555 
4.50875 1.92563 17.446 
4.536 1.92821 17.4364 
4.32001 1.91706 17.512 
4.34676 1.9196 17.5026 
4.45446 1.92983 17.465 
4.48157 1.9324 17.4555 
4.50875 1.93498 17.446 
4.536 1.93757 17.4364 
4.56332 1.94016 17.4269 
4.32001 1.92632 17.512 
4.34676 1.92887 17.5026 
4.37358 1.93143 17.4933 
4.40047 1.934 17.4839 
4.42743 1.93657 17.4744 
4.45446 1.93915 17.465 
4.48157 1.94173 17.4555 
4.50875 1.94433 17.446 
4.536 1.94693 17.4364 
4.56332 1.94953 17.4269 
4.59071 1.95215 17.4173 
4.61819 1.95477 17.4077 
4.64573 1.9574 17.398 
4.32001 1.93558 17.512 
4.34676 1.93815 17.5026 
4.37358 1.94072 17.4933 
4.40047 1.9433 17.4839 
4.42743 1.94588 17.4744 
4.45446 1.94847 17.465 
4.48157 1.95107 17.4555 
4.50875 1.95368 17.446 
4.536 1.95629 17.4364 
4.56332 1.95891 17.4269 
4.59071 1.96153 17.4173 
4.61819 1.96417 17.4077 
4.64573 1.96681 17.398 
4.34676 1.94742 17.5026 
4.37358 1.95 17.4933 
4.42743 1.95519 17.4744 
4.45446 1.95779 17.465 
4.48157 1.96041 17.4555 
4.50875 1.96302 17.446 
4.536 1.96565 17.4364 
4.56332 1.96828 17.4269 
4.59071 1.97092 17.4173 
4.61819 1.97357 17.4077 
4.64573 1.97622 17.398 
4.67335 1.97888 17.3884 
4.32001 1.9541 17.512 
4.34676 1.95669 17.5026 
4.37358 1.95929 17.4933 
4.45446 1.96712 17.465 
4.48157 1.96974 17.4555 
4.50875 1.97237 17.446 
4.536 1.97501 17.4364 
4.56332 1.97765 17.4269 
4.59071 1.9803 17.4173 
4.61819 1.98296 17.4077 
4.64573 1.98563 17.398 
4.67335 1.9883 17.3884 
4.34676 1.96597 17.5026 
4.50875 1.98172 17.446 
4.536 1.98437 17.4364 
4.56332 1.98703 17.4269 
4.59071 1.98969 17.4173 
4.61819 1.99236 17.4077 
4.64573 1.99504 17.398 
4.67335 1.99773 17.3884 
4.70104 2.00042 17.3787 
4.34676 1.97524 17.5026 
4.50875 1.99107 17.446 
4.536 1.99373 17.4364 
4.56332 1.9964 17.4269 
4.59071 1.99908 17.4173 
4.61819 2.00176 17.4077 
4.64573 2.00445 17.398 
4.67335 2.00715 17.3884 
4.70104 2.00985 17.3787 
4.536 2.00309 17.4364 
4.56332 2.00577 17.4269 
4.59071 2.00846 17.4173 
4.61819 2.01116 17.4077 
4.64573 2.01386 17.398 
4.67335 2.01657 17.3884 
4.70104 2.01929 17.3787 
4.72881 2.02202 17.369 
4.56332 2.01514 17.4269 
4.59071 2.01785 17.4173 
4.61819 2.02056 17.4077 
4.64573 2.02327 17.398 
4.67335 2.026 17.3884 
4.70104 2.02873 17.3787 
4.72881 2.03146 17.369 
4.56332 2.02452 17.4269 
4.59071 2.02723 17.4173 
4.61819 2.02995 17.4077 
4.64573 2.03268 17.398 
4.67335 2.03542 17.3884 
4.70104 2.03816 17.3787 
4.72881 2.04091 17.369 
4.75665 2.04367 17.3592 
4.56332 2.03389 17.4269 
4.59071 2.03662 17.4173 
4.61819 2.03935 17.4077 
4.64573 2.04209 17.398 
4.67335 2.04484 17.3884 
4.70104 2.0476 17.3787 
4.72881 2.05036 17.369 
4.75665 2.05313 17.3592 
4.56332 2.04326 17.4269 
4.59071 2.046 17.4173 
4.61819 2.04875 17.4077 
4.64573 2.0515 17.398 
4.67335 2.05426 17.3884 
4.70104 2.05703 17.3787 
4.72881 2.05981 17.369 
4.75665 2.06259 17.3592 
4.56332 2.05264 17.4269 
4.59071 2.05539 17.4173 
4.61819 2.05815 17.4077 
4.64573 2.06091 17.398 
4.67335 2.06369 17.3884 
4.70104 2.06647 17.3787 
4.72881 2.06926 17.369 
4.75665 2.07206 17.3592 
4.56332 2.06201 17.4269 
4.59071 2.06477 17.4173 
4.61819 2.06754 17.4077 
4.64573 2.07032 17.398 
4.67335 2.07311 17.3884 
4.70104 2.07591 17.3787 
4.72881 2.07871 17.369 
4.75665 2.08152 17.3592 
4.56332 2.07138 17.4269 
4.59071 2.07416 17.4173 
4.61819 2.07694 17.4077 
4.64573 2.07973 17.398 
4.67335 2.08253 17.3884 
4.70104 2.08534 17.3787 
4.72881 2.08816 17.369 
4.75665 2.09098 17.3592 
2.58632 1.87943 18.1187 
4.56332 2.08075 17.4269 
4.59071 2.08354 17.4173 
4.61819 2.08634 17.4077 
4.64573 2.08915 17.398 
4.67335 2.09196 17.3884 
4.70104 2.09478 17.3787 
4.72881 2.0976 17.369 
4.75665 2.10044 17.3592 
4.56332 2.09013 17.4269 
4.59071 2.09293 17.4173 
4.61819 2.09574 17.4077 
4.64573 2.09856 17.398 
4.67335 2.10138 17.3884 
4.70104 2.10421 17.3787 
4.72881 2.10705 17.369 
4.75665 2.1099 17.3592 
2.67604 1.90558 18.0873 
4.56332 2.0995 17.4269 
4.59071 2.10231 17.4173 
4.61819 2.10514 17.4077 
4.64573 2.10797 17.398 
4.67335 2.1108 17.3884 
4.70104 2.11365 17.3787 
4.72881 2.1165 17.369 
4.75665 2.11936 17.3592 
4.56332 2.10887 17.4269 
4.59071 2.1117 17.4173 
4.61819 2.11453 17.4077 
4.64573 2.11738 17.398 
4.67335 2.12023 17.3884 
4.70104 2.12309 17.3787 
4.72881 2.12595 17.369 
4.75665 2.12882 17.3592 
2.72123 1.92728 18.0714 
2.74391 1.92963 18.0635 
4.56332 2.11824 17.4269 
4.59071 2.12108 17.4173 
4.61819 2.12393 17.4077 
4.64573 2.12679 17.398 
4.67335 2.12965 17.3884 
4.70104 2.13252 17.3787 
4.72881 2.1354 17.369 
2.74391 1.93817 18.0635 
4.56332 2.12762 17.4269 
4.59071 2.13047 17.4173 
4.61819 2.13333 17.4077 
4.64573 2.1362 17.398 
4.67335 2.13907 17.3884 
4.70104 2.14196 17.3787 
4.72881 2.14485 17.369 
2.76664 1.94909 18.0556 
4.59071 2.13986 17.4173 
4.61819 2.14273 17.4077 
4.64573 2.14561 17.398 
4.67335 2.1485 17.3884 
4.70104 2.15139 17.3787 
4.72881 2.1543 17.369 
4.59071 2.14924 17.4173 
4.61819 2.15213 17.4077 
4.64573 2.15502 17.398 
4.67335 2.15792 17.3884 
4.70104 2.16083 17.3787 
4.59071 2.15863 17.4173 
4.61819 2.16152 17.4077 
4.64573 2.16443 17.398 
4.67335 2.16734 17.3884 
4.70104 2.17026 17.3787 
4.59071 2.16801 17.4173 
4.61819 2.17092 17.4077 
4.64573 2.17384 17.398 
4.67335 2.17677 17.3884 
4.70104 2.1797 17.3787 
4.61819 2.18032 17.4077 
4.64573 2.18325 17.398 
4.67335 2.18619 17.3884 
4.70104 2.18914 17.3787 
4.72881 2.19209 17.369 
4.61819 2.18972 17.4077 
4.64573 2.19266 17.398 
4.67335 2.19561 17.3884 
4.70104 2.19857 17.3787 
4.72881 2.20154 17.369 
4.61819 2.19912 17.4077 
4.64573 2.20207 17.398 
4.67335 2.20504 17.3884 
4.70104 2.20801 17.3787 
4.72881 2.21099 17.369 
4.61819 2.20851 17.4077 
4.64573 2.21148 17.398 
4.67335 2.21446 17.3884 
4.70104 2.21744 17.3787 
4.72881 2.22044 17.369 
4.61819 2.21791 17.4077 
4.64573 2.22089 17.398 
4.67335 2.22388 17.3884 
4.70104 2.22688 17.3787 
4.61819 2.22731 17.4077 
4.64573 2.2303 17.398 
4.67335 2.23331 17.3884 
4.70104 2.23632 17.3787 
4.61819 2.23671 17.4077 
4.64573 2.23971 17.398 
4.67335 2.24273 17.3884 
4.70104 2.24575 17.3787 
4.61819 2.24611 17.4077 
4.64573 2.24912 17.398 
4.67335 2.25215 17.3884 
4.70104 2.25519 17.3787 
4.59071 2.25248 17.4173 
4.61819 2.2555 17.4077 
4.64573 2.25854 17.398 
4.67335 2.26158 17.3884 
4.70104 2.26462 17.3787 
4.56332 2.25884 17.4269 
4.59071 2.26186 17.4173 
4.61819 2.2649 17.4077 
4.64573 2.26795 17.398 
4.67335 2.271 17.3884 
4.70104 2.27406 17.3787 
4.56332 2.26821 17.4269 
4.59071 2.27125 17.4173 
4.61819 2.2743 17.4077 
4.64573 2.27736 17.398 
4.67335 2.28042 17.3884 
4.70104 2.2835 17.3787 
4.56332 2.27758 17.4269 
4.59071 2.28064 17.4173 
4.61819 2.2837 17.4077 
4.64573 2.28677 17.398 
4.67335 2.28985 17.3884 
4.56332 2.28695 17.4269 
4.59071 2.29002 17.4173 
4.61819 2.29309 17.4077 
4.64573 2.29618 17.398 
4.67335 2.29927 17.3884 
4.56332 2.29633 17.4269 
4.59071 2.29941 17.4173 
4.61819 2.30249 17.4077 
4.64573 2.30559 17.398 
4.67335 2.30869 17.3884 
4.56332 2.3057 17.4269 
4.59071 2.30879 17.4173 
4.61819 2.31189 17.4077 
4.64573 2.315 17.398 
4.67335 2.31812 17.3884 
4.56332 2.31507 17.4269 
4.59071 2.31818 17.4173 
4.61819 2.32129 17.4077 
4.64573 2.32441 17.398 
4.67335 2.32754 17.3884 
4.56332 2.32445 17.4269 
4.59071 2.32756 17.4173 
4.61819 2.33069 17.4077 
4.64573 2.33382 17.398 
4.56332 2.33382 17.4269 
4.59071 2.33695 17.4173 
4.61819 2.34008 17.4077 
4.64573 2.34323 17.398 
4.56332 2.34319 17.4269 
4.59071 2.34633 17.4173 
4.61819 2.34948 17.4077 
4.64573 2.35264 17.398 
4.56332 2.35256 17.4269 
4.59071 2.35572 17.4173 
4.61819 2.35888 17.4077 
4.64573 2.36205 17.398 
4.56332 2.36194 17.4269 
4.59071 2.3651 17.4173 
4.61819 2.36828 17.4077 
4.56332 2.37131 17.4269 
4.59071 2.37449 17.4173 
4.61819 2.37768 17.4077 
4.56332 2.38068 17.4269 
4.59071 2.38387 17.4173 
4.61819 2.38707 17.4077 
4.56332 2.39005 17.4269 
4.59071 2.39326 17.4173 
4.61819 2.39647 17.4077 
4.56332 2.39943 17.4269 
4.59071 2.40264 17.4173 
4.56332 2.4088 17.4269 
4.59071 2.41203 17.4173 
4.56332 2.41817 17.4269 
4.59071 2.42142 17.4173 
4.536 2.4243 17.4364 
4.56332 2.42755 17.4269 
4.59071 2.4308 17.4173 
4.536 2.43366 17.4364 
4.56332 2.43692 17.4269 
4.59071 2.44019 17.4173 
4.536 2.44302 17.4364 
4.56332 2.44629 17.4269 
4.59071 2.44957 17.4173 
4.536 2.45238 17.4364 
4.56332 2.45566 17.4269 
4.536 2.46174 17.4364 
4.56332 2.46504 17.4269 
4.536 2.4711 17.4364 
4.56332 2.47441 17.4269 
4.59071 2.47773 17.4173 
4.536 2.48046 17.4364 
4.56332 2.48378 17.4269 
4.59071 2.48711 17.4173 
4.536 2.48982 17.4364 
4.56332 2.49316 17.4269 
4.536 2.49918 17.4364 
4.56332 2.50253 17.4269 
4.536 2.50854 17.4364 
4.56332 2.5119 17.4269 
4.536 2.5179 17.4364 
4.56332 2.52127 17.4269 
4.56332 2.53065 17.4269 
4.56332 2.54002 17.4269 
4.536 2.54598 17.4364 
4.56332 2.54939 17.4269 
4.536 2.55534 17.4364 
4.56332 2.55876 17.4269 
4.536 2.5647 17.4364 
4.56332 2.56814 17.4269 
4.536 2.57406 17.4364 
4.56332 2.57751 17.4269 
4.536 2.58342 17.4364 
4.56332 2.58688 17.4269 
4.536 2.59278 17.4364 
4.56332 2.59626 17.4269 
4.536 2.60214 17.4364 
4.56332 2.60563 17.4269 
4.536 2.6115 17.4364 
4.56332 2.615 17.4269 
4.536 2.62086 17.4364 
4.56332 2.62437 17.4269 
4.59071 2.62789 17.4173 
4.536 2.63022 17.4364 
4.56332 2.63375 17.4269 
4.59071 2.63728 17.4173 
4.536 2.63958 17.4364 
4.56332 2.64312 17.4269 
4.59071 2.64666 17.4173 
4.536 2.64895 17.4364 
4.56332 2.65249 17.4269 
4.59071 2.65605 17.4173 
4.56332 2.66186 17.4269 
4.56332 2.67124 17.4269 
4.536 2.67703 17.4364 
4.56332 2.68061 17.4269 
4.536 2.68639 17.4364 
4.56332 2.68998 17.4269 
4.56332 2.69936 17.4269 
4.56332 2.70873 17.4269 
4.56332 2.7181 17.4269 
4.536 2.72383 17.4364 
4.56332 2.72747 17.4269 
4.536 2.73319 17.4364 
4.56332 2.73685 17.4269 
4.536 2.74255 17.4364 
4.56332 2.74622 17.4269 
4.536 2.75191 17.4364 
4.56332 2.75559 17.4269 
4.536 2.76127 17.4364 
4.56332 2.76497 17.4269 
4.536 2.77063 17.4364 
4.56332 2.77434 17.4269 
4.536 2.77999 17.4364 
4.56332 2.78371 17.4269 
4.56332 2.79308 17.4269 
4.56332 2.80246 17.4269 
4.59071 2.80621 17.4173 
4.56332 2.81183 17.4269 
4.59071 2.8156 17.4173 
4.59071 2.82498 17.4173 
4.61819 2.83817 17.4077 
4.61819 2.84757 17.4077 
4.64573 2.8514 17.398 
4.64573 2.86081 17.398 
4.67335 2.86466 17.3884 
4.70104 2.8874 17.3787 
4.72881 2.89129 17.369 
4.72881 2.90074 17.369 
4.75665 2.90466 17.3592 
4.98212 2.96511 17.2803 
4.98212 2.97467 17.2803 
5.01066 2.97874 17.2703 
5.03927 2.98283 17.2603 
5.06795 2.98692 17.2503 
5.03927 2.99242 17.2603 
5.06795 2.99652 17.2503 
5.09672 3.00064 17.2402 
5.12557 3.00477 17.2301 
5.15449 3.00891 17.22 
5.1835 3.01306 17.2099 
5.09672 3.01026 17.2402 
5.12557 3.0144 17.2301 
5.15449 3.01855 17.22 
5.1835 3.02272 17.2099 
5.21258 3.02689 17.1997 
5.12557 3.02403 17.2301 
5.15449 3.0282 17.22 
5.1835 3.03237 17.2099 
5.21258 3.03656 17.1997 
5.24175 3.04076 17.1895 
5.271 3.04498 17.1792 
5.30032 3.0492 17.169 
5.32973 3.05344 17.1587 
5.15449 3.03784 17.22 
5.1835 3.04203 17.2099 
5.21258 3.04623 17.1997 
5.24175 3.05045 17.1895 
5.271 3.05467 17.1792 
5.30032 3.05891 17.169 
5.32973 3.06316 17.1587 
5.35923 3.06742 17.1484 
5.1835 3.05169 17.2099 
5.21258 3.0559 17.1997 
5.24175 3.06013 17.1895 
5.271 3.06437 17.1792 
5.30032 3.06862 17.169 
5.32973 3.07288 17.1587 
5.35923 3.07716 17.1484 
5.3888 3.08145 17.138 
5.41846 3.08574 17.1276 
5.44819 3.09005 17.1172 
5.24175 3.06981 17.1895 
5.271 3.07407 17.1792 
5.30032 3.07833 17.169 
5.32973 3.08261 17.1587 
5.35923 3.0869 17.1484 
5.3888 3.0912 17.138 
5.41846 3.09551 17.1276 
5.44819 3.09983 17.1172 
5.30032 3.08804 17.169 
5.32973 3.09233 17.1587 
5.35923 3.09663 17.1484 
5.3888 3.10095 17.138 
5.41846 3.10527 17.1276 
5.44819 3.10961 17.1172 
5.47802 3.11396 17.1068 
5.30032 3.09775 17.169 
5.32973 3.10206 17.1587 
5.35923 3.10637 17.1484 
5.3888 3.1107 17.138 
5.41846 3.11504 17.1276 
5.44819 3.11939 17.1172 
5.47802 3.12375 17.1068 
5.50792 3.12813 17.0963 
5.32973 3.11178 17.1587 
5.35923 3.11611 17.1484 
5.3888 3.12045 17.138 
5.41846 3.1248 17.1276 
5.44819 3.12917 17.1172 
5.47802 3.13355 17.1068 
5.50792 3.13794 17.0963 
5.53791 3.14234 17.0858 
5.56799 3.14675 17.0753 
5.32973 3.12151 17.1587 
5.35923 3.12585 17.1484 
5.3888 3.1302 17.138 
5.41846 3.13457 17.1276 
5.44819 3.13895 17.1172 
5.47802 3.14334 17.1068 
5.50792 3.14774 17.0963 
5.53791 3.15216 17.0858 
5.56799 3.15659 17.0753 
5.32973 3.13123 17.1587 
5.35923 3.13559 17.1484 
5.3888 3.13995 17.138 
5.41846 3.14433 17.1276 
5.44819 3.14873 17.1172 
5.47802 3.15313 17.1068 
5.50792 3.15755 17.0963 
5.53791 3.16198 17.0858 
5.56799 3.16642 17.0753 
5.59815 3.17087 17.0648 
5.35923 3.14532 17.1484 
5.3888 3.14971 17.138 
5.41846 3.1541 17.1276 
5.44819 3.15851 17.1172 
5.47802 3.16292 17.1068 
5.50792 3.16735 17.0963 
5.53791 3.1718 17.0858 
5.56799 3.17625 17.0753 
5.59815 3.18072 17.0648 
5.62839 3.1852 17.0542 
5.35923 3.15506 17.1484 
5.3888 3.15946 17.138 
5.41846 3.16386 17.1276 
5.44819 3.16828 17.1172 
5.47802 3.17272 17.1068 
5.50792 3.17716 17.0963 
5.53791 3.18162 17.0858 
5.56799 3.18609 17.0753 
5.59815 3.19057 17.0648 
5.62839 3.19506 17.0542 
5.35923 3.1648 17.1484 
5.3888 3.16921 17.138 
5.41846 3.17363 17.1276 
5.44819 3.17806 17.1172 
5.47802 3.18251 17.1068 
5.50792 3.18697 17.0963 
5.53791 3.19144 17.0858 
5.56799 3.19592 17.0753 
5.59815 3.20042 17.0648 
5.62839 3.20493 17.0542 
5.35923 3.17454 17.1484 
5.3888 3.17896 17.138 
5.41846 3.18339 17.1276 
5.44819 3.18784 17.1172 
5.47802 3.1923 17.1068 
5.50792 3.19677 17.0963 
5.53791 3.20126 17.0858 
5.56799 3.20575 17.0753 
5.59815 3.21026 17.0648 
5.62839 3.21479 17.0542 
5.65872 3.21932 17.0436 
5.35923 3.18428 17.1484 
5.3888 3.18871 17.138 
5.41846 3.19316 17.1276 
5.44819 3.19762 17.1172 
5.47802 3.20209 17.1068 
5.50792 3.20658 17.0963 
5.53791 3.21108 17.0858 
5.56799 3.21559 17.0753 
5.59815 3.22011 17.0648 
5.62839 3.22465 17.0542 
5.65872 3.2292 17.0436 
5.35923 3.19401 17.1484 
5.3888 3.19846 17.138 
5.41846 3.20292 17.1276 
5.44819 3.2074 17.1172 
5.47802 3.21189 17.1068 
5.50792 3.21639 17.0963 
5.53791 3.2209 17.0858 
5.56799 3.22542 17.0753 
5.59815 3.22996 17.0648 
5.62839 3.23451 17.0542 
5.65872 3.23907 17.0436 
5.35923 3.20375 17.1484 
5.3888 3.20821 17.138 
5.41846 3.21269 17.1276 
5.44819 3.21718 17.1172 
5.47802 3.22168 17.1068 
5.50792 3.22619 17.0963 
5.53791 3.23072 17.0858 
5.56799 3.23526 17.0753 
5.59815 3.23981 17.0648 
5.62839 3.24437 17.0542 
5.65872 3.24895 17.0436 
5.41846 3.22245 17.1276 
5.44819 3.22696 17.1172 
5.47802 3.23147 17.1068 
5.50792 3.236 17.0963 
5.53791 3.24054 17.0858 
5.56799 3.24509 17.0753 
5.59815 3.24965 17.0648 
5.62839 3.25423 17.0542 
5.41846 3.23222 17.1276 
5.44819 3.23673 17.1172 
5.47802 3.24126 17.1068 
5.50792 3.2458 17.0963 
5.53791 3.25036 17.0858 
5.56799 3.25492 17.0753 
5.59815 3.2595 17.0648 
5.62839 3.26409 17.0542 
5.41846 3.24198 17.1276 
5.44819 3.24651 17.1172 
5.47802 3.25106 17.1068 
5.50792 3.25561 17.0963 
5.53791 3.26018 17.0858 
5.56799 3.26476 17.0753 
5.59815 3.26935 17.0648 
5.62839 3.27395 17.0542 
5.41846 3.25175 17.1276 
5.44819 3.25629 17.1172 
5.47802 3.26085 17.1068 
5.50792 3.26542 17.0963 
5.53791 3.27 17.0858 
5.56799 3.27459 17.0753 
5.59815 3.2792 17.0648 
5.62839 3.28382 17.0542 
5.47802 3.27064 17.1068 
5.50792 3.27522 17.0963 
5.53791 3.27982 17.0858 
5.56799 3.28442 17.0753 
5.59815 3.28904 17.0648 
5.62839 3.29368 17.0542 
5.47802 3.28043 17.1068 
5.50792 3.28503 17.0963 
5.53791 3.28964 17.0858 
5.56799 3.29426 17.0753 
5.59815 3.29889 17.0648 
5.62839 3.30354 17.0542 
3.09082 2.9223 17.9421 
3.11441 2.92594 17.9339 
5.41846 3.28104 17.1276 
5.44819 3.28563 17.1172 
5.47802 3.29022 17.1068 
5.50792 3.29483 17.0963 
5.53791 3.29946 17.0858 
5.56799 3.30409 17.0753 
5.59815 3.30874 17.0648 
5.62839 3.3134 17.0542 
5.65872 3.31807 17.0436 
5.41846 3.29081 17.1276 
5.44819 3.29541 17.1172 
5.47802 3.30002 17.1068 
5.50792 3.30464 17.0963 
5.53791 3.30928 17.0858 
5.56799 3.31392 17.0753 
5.59815 3.31859 17.0648 
5.62839 3.32326 17.0542 
5.65872 3.32795 17.0436 
5.47802 3.30981 17.1068 
5.50792 3.31445 17.0963 
5.53791 3.3191 17.0858 
5.56799 3.32376 17.0753 
5.59815 3.32843 17.0648 
5.62839 3.33312 17.0542 
5.47802 3.3196 17.1068 
5.50792 3.32425 17.0963 
5.53791 3.32891 17.0858 
5.56799 3.33359 17.0753 
5.59815 3.33828 17.0648 
5.62839 3.34298 17.0542 
5.50792 3.33406 17.0963 
5.53791 3.33873 17.0858 
5.56799 3.34343 17.0753 
5.59815 3.34813 17.0648 
5.62839 3.35285 17.0542 
5.50792 3.34386 17.0963 
5.53791 3.34855 17.0858 
5.56799 3.35326 17.0753 
5.59815 3.35798 17.0648 
5.62839 3.36271 17.0542 
5.50792 3.35367 17.0963 
5.53791 3.35837 17.0858 
5.56799 3.36309 17.0753 
5.50792 3.36348 17.0963 
5.53791 3.36819 17.0858 
5.56799 3.37293 17.0753 
5.47802 3.36856 17.1068 
5.50792 3.37328 17.0963 
5.53791 3.37801 17.0858 
5.53791 3.38783 17.0858 
4.5815 1.84891 17.3728 
4.47386 1.84838 17.415 
4.50067 1.85085 17.4045 
4.55449 1.85581 17.3834 
4.5815 1.8583 17.3728 
4.6086 1.86079 17.3622 
4.63576 1.86329 17.3515 
4.44713 1.85524 17.4255 
4.47386 1.85772 17.415 
4.50067 1.8602 17.4045 
4.55449 1.86518 17.3834 
4.5815 1.86768 17.3728 
4.6086 1.87019 17.3622 
4.63576 1.8727 17.3515 
4.663 1.87522 17.3408 
4.69031 1.87775 17.3301 
4.71769 1.88029 17.3193 
4.44713 1.86457 17.4255 
4.47386 1.86705 17.415 
4.50067 1.86955 17.4045 
4.52754 1.87205 17.394 
4.55449 1.87455 17.3834 
4.5815 1.87707 17.3728 
4.6086 1.87959 17.3622 
4.63576 1.88211 17.3515 
4.663 1.88465 17.3408 
4.69031 1.88719 17.3301 
4.71769 1.88973 17.3193 
4.74515 1.89229 17.3086 
4.42047 1.8714 17.436 
4.44713 1.87389 17.4255 
4.47386 1.87639 17.415 
4.50067 1.87889 17.4045 
4.52754 1.88141 17.394 
4.55449 1.88393 17.3834 
4.5815 1.88645 17.3728 
4.6086 1.88898 17.3622 
4.63576 1.89152 17.3515 
4.663 1.89407 17.3408 
4.69031 1.89662 17.3301 
4.71769 1.89918 17.3193 
4.74515 1.90175 17.3086 
4.44713 1.88321 17.4255 
4.47386 1.88572 17.415 
4.50067 1.88824 17.4045 
4.52754 1.89077 17.394 
4.55449 1.8933 17.3834 
4.5815 1.89584 17.3728 
4.6086 1.89838 17.3622 
4.63576 1.90093 17.3515 
4.663 1.90349 17.3408 
4.69031 1.90606 17.3301 
4.71769 1.90863 17.3193 
4.74515 1.91121 17.3086 
4.44713 1.89253 17.4255 
4.47386 1.89506 17.415 
4.50067 1.89759 17.4045 
4.52754 1.90013 17.394 
4.55449 1.90267 17.3834 
4.5815 1.90522 17.3728 
4.6086 1.90778 17.3622 
4.63576 1.91034 17.3515 
4.663 1.91292 17.3408 
4.69031 1.91549 17.3301 
4.71769 1.91808 17.3193 
4.74515 1.92067 17.3086 
4.47386 1.90439 17.415 
4.50067 1.90694 17.4045 
4.52754 1.90949 17.394 
4.55449 1.91204 17.3834 
4.5815 1.91461 17.3728 
4.6086 1.91718 17.3622 
4.63576 1.91976 17.3515 
4.663 1.92234 17.3408 
4.69031 1.92493 17.3301 
4.71769 1.92753 17.3193 
4.74515 1.93013 17.3086 
4.77268 1.93275 17.2978 
4.50067 1.91628 17.4045 
4.52754 1.91885 17.394 
4.55449 1.92142 17.3834 
4.5815 1.92399 17.3728 
4.6086 1.92658 17.3622 
4.63576 1.92917 17.3515 
4.663 1.93176 17.3408 
4.69031 1.93437 17.3301 
4.71769 1.93698 17.3193 
4.74515 1.9396 17.3086 
4.77268 1.94222 17.2978 
4.50067 1.92563 17.4045 
4.52754 1.92821 17.394 
4.55449 1.93079 17.3834 
4.5815 1.93338 17.3728 
4.6086 1.93597 17.3622 
4.63576 1.93858 17.3515 
4.663 1.94119 17.3408 
4.69031 1.9438 17.3301 
4.71769 1.94643 17.3193 
4.74515 1.94906 17.3086 
4.77268 1.9517 17.2978 
4.50067 1.93498 17.4045 
4.52754 1.93757 17.394 
4.55449 1.94016 17.3834 
4.5815 1.94276 17.3728 
4.6086 1.94537 17.3622 
4.63576 1.94799 17.3515 
4.663 1.95061 17.3408 
4.69031 1.95324 17.3301 
4.71769 1.95588 17.3193 
4.74515 1.95852 17.3086 
4.77268 1.96117 17.2978 
4.63576 1.9574 17.3515 
4.663 1.96003 17.3408 
4.69031 1.96267 17.3301 
4.71769 1.96532 17.3193 
4.74515 1.96798 17.3086 
4.77268 1.97064 17.2978 
4.80029 1.97331 17.2869 
4.82797 1.97599 17.2761 
4.63576 1.96681 17.3515 
4.663 1.96946 17.3408 
4.69031 1.97211 17.3301 
4.71769 1.97477 17.3193 
4.74515 1.97744 17.3086 
4.77268 1.98012 17.2978 
4.80029 1.9828 17.2869 
4.82797 1.98549 17.2761 
4.663 1.97888 17.3408 
4.69031 1.98155 17.3301 
4.71769 1.98422 17.3193 
4.74515 1.9869 17.3086 
4.77268 1.98959 17.2978 
4.80029 1.99229 17.2869 
4.82797 1.99499 17.2761 
4.663 1.9883 17.3408 
4.69031 1.99098 17.3301 
4.71769 1.99367 17.3193 
4.74515 1.99636 17.3086 
4.77268 1.99907 17.2978 
4.80029 2.00178 17.2869 
4.82797 2.00449 17.2761 
4.663 1.99773 17.3408 
4.69031 2.00042 17.3301 
4.71769 2.00312 17.3193 
4.74515 2.00583 17.3086 
4.77268 2.00854 17.2978 
4.80029 2.01126 17.2869 
4.82797 2.01399 17.2761 
4.663 2.00715 17.3408 
4.69031 2.00985 17.3301 
4.71769 2.01257 17.3193 
4.74515 2.01529 17.3086 
4.77268 2.01801 17.2978 
4.80029 2.02075 17.2869 
4.82797 2.02349 17.2761 
4.69031 2.01929 17.3301 
4.71769 2.02202 17.3193 
4.74515 2.02475 17.3086 
4.77268 2.02749 17.2978 
4.80029 2.03024 17.2869 
4.82797 2.03299 17.2761 
4.85573 2.03576 17.2652 
4.69031 2.02873 17.3301 
4.71769 2.03146 17.3193 
4.74515 2.03421 17.3086 
4.77268 2.03696 17.2978 
4.80029 2.03972 17.2869 
4.82797 2.04249 17.2761 
4.85573 2.04527 17.2652 
4.71769 2.04091 17.3193 
4.74515 2.04367 17.3086 
4.77268 2.04644 17.2978 
4.80029 2.04921 17.2869 
4.82797 2.05199 17.2761 
4.85573 2.05478 17.2652 
4.71769 2.05036 17.3193 
4.74515 2.05313 17.3086 
4.77268 2.05591 17.2978 
4.80029 2.0587 17.2869 
4.82797 2.06149 17.2761 
4.85573 2.06429 17.2652 
4.71769 2.05981 17.3193 
4.74515 2.06259 17.3086 
4.77268 2.06539 17.2978 
4.80029 2.06819 17.2869 
4.82797 2.07099 17.2761 
4.85573 2.07381 17.2652 
4.71769 2.06926 17.3193 
4.74515 2.07206 17.3086 
4.77268 2.07486 17.2978 
4.80029 2.07767 17.2869 
4.82797 2.08049 17.2761 
4.85573 2.08332 17.2652 
4.74515 2.08152 17.3086 
4.77268 2.08433 17.2978 
4.80029 2.08716 17.2869 
4.82797 2.08999 17.2761 
4.85573 2.09283 17.2652 
2.51711 1.86196 18.183 
2.53894 1.8642 18.1744 
4.74515 2.09098 17.3086 
4.77268 2.09381 17.2978 
4.80029 2.09665 17.2869 
4.82797 2.09949 17.2761 
4.85573 2.10235 17.2652 
4.77268 2.10328 17.2978 
4.80029 2.10613 17.2869 
4.82797 2.10899 17.2761 
4.85573 2.11186 17.2652 
2.62678 1.89019 18.14 
4.77268 2.11276 17.2978 
4.80029 2.11562 17.2869 
4.82797 2.11849 17.2761 
4.85573 2.12137 17.2652 
4.74515 2.11936 17.3086 
4.77268 2.12223 17.2978 
4.80029 2.12511 17.2869 
4.82797 2.12799 17.2761 
4.85573 2.13088 17.2652 
4.74515 2.12882 17.3086 
4.77268 2.13171 17.2978 
4.80029 2.13459 17.2869 
4.82797 2.13749 17.2761 
4.85573 2.1404 17.2652 
2.73779 1.92728 18.0964 
2.76015 1.92963 18.0876 
4.74515 2.13829 17.3086 
4.77268 2.14118 17.2978 
4.80029 2.14408 17.2869 
4.82797 2.14699 17.2761 
4.85573 2.14991 17.2652 
4.74515 2.14775 17.3086 
4.77268 2.15065 17.2978 
4.80029 2.15357 17.2869 
4.82797 2.15649 17.2761 
4.85573 2.15942 17.2652 
4.74515 2.15721 17.3086 
4.77268 2.16013 17.2978 
4.80029 2.16306 17.2869 
4.82797 2.16599 17.2761 
4.85573 2.16894 17.2652 
4.74515 2.16667 17.3086 
4.77268 2.1696 17.2978 
4.80029 2.17254 17.2869 
4.82797 2.17549 17.2761 
4.85573 2.17845 17.2652 
4.74515 2.17613 17.3086 
4.77268 2.17908 17.2978 
4.80029 2.18203 17.2869 
4.82797 2.18499 17.2761 
4.85573 2.18796 17.2652 
4.74515 2.18559 17.3086 
4.77268 2.18855 17.2978 
4.80029 2.19152 17.2869 
4.82797 2.19449 17.2761 
4.85573 2.19747 17.2652 
4.71769 2.19209 17.3193 
4.74515 2.19505 17.3086 
4.77268 2.19803 17.2978 
4.80029 2.201 17.2869 
4.82797 2.20399 17.2761 
4.85573 2.20699 17.2652 
4.71769 2.20154 17.3193 
4.74515 2.20452 17.3086 
4.77268 2.2075 17.2978 
4.80029 2.21049 17.2869 
4.82797 2.21349 17.2761 
4.71769 2.21099 17.3193 
4.74515 2.21398 17.3086 
4.77268 2.21697 17.2978 
4.80029 2.21998 17.2869 
4.71769 2.22044 17.3193 
4.74515 2.22344 17.3086 
4.77268 2.22645 17.2978 
4.80029 2.22947 17.2869 
4.69031 2.22688 17.3301 
4.71769 2.22989 17.3193 
4.74515 2.2329 17.3086 
4.77268 2.23592 17.2978 
